# .PCD v0.7 - Point Cloud Data file format
VERSION 0.7
FIELDS x y z
SIZE 4 4 4
TYPE F F F
COUNT 1 1 1
WIDTH 1613
HEIGHT 1
VIEWPOINT 0 0 0 1 0 0 0
POINTS 1613
DATA ascii
176.40515 113.1447 252.508
177.47627 113.18351 252.48114
178.25053 113.23746 252.56641
179.27953 113.18994 252.29356
180.76511 113.26614 252.41348
181.37459 113.34632 252.55905
183.68288 113.45648 252.62129
184.66191 113.50268 252.62193
185.23911 113.60032 252.78656
187.71727 113.4672 252.28188
188.47688 113.67308 252.60986
189.56036 113.70731 252.56148
190.56473 113.79482 252.66045
191.5387 113.60509 252.30745
192.59526 113.78861 252.55965
193.29691 113.60039 252.20569
194.5993 113.72903 252.36015
195.66966 113.81545 252.43835
196.67398 113.85464 252.45932
197.31821 113.79471 252.3221
199.01059 113.75172 252.17577
200.2849 113.95148 252.42081
201.53029 113.8896 252.32782
202.31812 113.8046 252.17769
203.23711 113.87113 252.27763
204.1199 113.8383 252.21234
205.23619 113.82589 252.17627
208.31766 113.98874 252.37178
209.50861 113.84717 252.15369
210.72374 113.95231 252.29703
211.36342 113.83009 252.11201
212.64191 113.84093 252.14557
215.94815 113.94648 252.3777
216.28592 113.85518 252.2574
219.86807 113.80186 252.25229
220.14027 113.88773 252.40163
221.52307 113.92761 252.47682
222.52426 113.72208 252.1813
223.66599 113.72194 252.20129
224.83725 113.89198 252.53484
225.35956 113.7111 252.2747
226.16469 113.69607 252.29407
227.38063 113.70467 252.3756
229.45891 113.67636 252.42574
230.60454 113.62634 252.42053
232.40994 113.54163 252.33231
233.3385 113.54252 252.37703
234.07196 113.57581 252.52975
235.39696 113.64585 252.69705
236.37852 113.76911 252.98012
237.6286 113.66399 252.88736
238.72525 113.31219 252.20438
239.65703 113.48021 252.70139
242.29947 113.28056 252.44087
243.19463 113.2596 252.43442
244.17587 113.33796 252.74857
245.45692 113.20126 252.42932
246.41228 113.27324 252.722
247.29192 113.15604 252.40913
248.40077 113.16204 252.48335
249.44725 113.12411 252.46342
250.94571 113.15379 252.72076
251.58545 113.09613 252.48735
252.79607 113.11655 252.71529
253.22592 113.07054 252.47598
254.94333 113.09415 252.84203
255.67989 113.01976 252.38301
256.49603 113.09201 252.99255
257.66016 113.02875 252.7128
258.36661 113.02656 252.66882
259.34381 113.02103 252.72342
260.72061 113.01214 252.26237
261.07419 113.01156 252.4303
262.16641 113.04705 252.0374
263.57654 113.02186 252.51501
264.44482 113.05438 252.19888
265.46179 113.0224 252.65251
266.52374 113.07121 252.36861
267.14044 113.11027 252.19447
268.72595 113.12699 252.28979
269.70108 113.07323 252.65538
270.29666 113.13541 252.44371
271.33829 113.1753 252.43941
272.25223 113.30618 252.09944
273.38342 113.30963 252.22917
274.35089 113.35703 252.22493
275.6434 113.46231 252.12744
276.39551 113.36954 252.4684
277.23691 113.42115 252.43422
278.63144 113.48837 252.46626
279.31717 113.59232 252.31693
280.66431 113.54231 252.5927
281.29639 113.80785 252.1949
282.72311 113.77457 252.44391
284.57559 113.75671 252.6853
285.60602 113.78162 252.767
286.39728 113.84184 252.7724
288.92212 113.95235 252.91469
484.98297 113.97676 252.30186
485.66211 113.7774 252.41313
486.6239 113.3484 252.98041
487.43683 113.44964 252.4622
488.3269 113.35844 252.40413
490.54913 113.15638 252.26114
491.52838 113.06812 252.42061
493.60098 113.01492 252.2209
494.55634 113.05307 252.75882
495.3645 113.05499 252.40923
497.33051 113.24529 252.54434
498.42188 113.534 252.86882
499.50497 113.59931 252.52904
500.45984 113.97411 252.81209
146.93076 114.86012 252.97925
148.46208 114.73804 252.68164
151.66187 114.40222 252.21991
152.5621 114.18572 252.25882
153.6037 114.07598 252.14435
192.01596 114.01492 252.91562
193.32753 114.08246 252.93489
196.49767 114.13149 252.83716
199.5031 114.18337 252.74565
201.64188 114.02528 252.49771
202.13799 114.16232 252.66473
204.37842 114.24936 252.72978
205.42639 114.19115 252.65599
207.40915 114.33817 252.79608
208.17047 114.46771 252.92885
209.888 114.27486 252.70047
211.5127 114.34913 252.76546
213.57814 114.25089 252.68814
214.50047 114.27243 252.74908
216.41042 114.35162 252.87169
217.9276 114.08892 252.60385
223.65564 114.18738 252.86221
225.96405 114.03462 252.78862
227.3165 114.09959 252.94547
228.41956 114.05125 252.94527
229.70711 114.02856 252.98769
283.21005 114.02486 252.10863
284.25861 114.11478 252.1308
287.35498 114.27057 252.32753
288.40201 114.27412 252.46959
289.25967 114.56968 252.2536
291.58173 114.25127 252.87196
292.19519 114.33572 252.84702
293.34042 114.88098 252.47879
294.86856 114.53247 252.98088
295.6955 114.95906 252.71381
297.90018 114.96452 252.98804
479.75153 114.81595 252.96986
481.3266 114.40044 252.92139
482.67593 114.42304 252.51123
483.09787 114.49742 252.2887
484.70349 114.06474 252.27632
501.17032 114.02344 252.56303
502.45132 114.67637 252.73735
503.7417 114.87103 252.34898
145.12335 115.99587 252.75545
146.39256 115.82498 252.48845
147.58282 115.51389 252.35565
148.69475 115.29962 252.20848
292.65295 115.33859 252.06938
293.5932 115.38052 252.16855
294.3584 115.42368 252.23254
295.53568 115.3438 252.43526
297.47998 115.03445 252.8837
298.46362 115.59893 252.64265
299.10706 115.63268 252.70483
300.02747 115.48366 252.90492
478.36966 115.36543 252.96735
479.33701 115.63694 252.52556
480.14383 115.92621 252.13554
482.2948 115.03635 252.05417
503.91849 115.54927 252.77495
504.60547 115.8015 252.60385
505.2915 115.5149 252.10785
143.62982 116.96914 252.82947
144.55676 116.43924 252.72885
145.74474 116.7388 252.32074
146.38611 116.29796 252.29309
147.16789 116.35435 252.05939
295.96204 116.01242 252.12204
296.48999 116.36643 252.04861
297.67554 116.44287 252.17542
298.45932 116.60616 252.22591
299.38553 116.67207 252.31964
301.9574 116.43285 252.73499
302.45944 116.64849 252.71436
303.68265 116.26247 252.99173
476.599 116.62453 252.87424
477.90427 116.12941 252.69524
478.71509 116.07974 252.48938
479.39722 116.52353 252.12146
504.7905 116.77814 252.91571
505.1976 116.68371 252.69939
506.3891 116.65897 252.09367
142.88446 117.81318 252.93806
143.38033 117.72453 252.79836
144.56487 117.65362 252.48494
145.14594 117.12689 252.3947
299.89871 117.22803 252.26347
300.53415 117.20378 252.34772
302.66052 117.72168 252.55942
303.62146 117.77181 252.67728
304.39505 117.13183 252.847
475.89008 117.54035 252.87234
476.45114 117.62985 252.72295
477.46753 117.51304 252.45361
478.50925 117.72593 252.15584
505.39984 117.42941 252.74576
506.59372 117.46751 252.17448
142.88185 118.27597 252.94644
143.53348 118.33752 252.77075
144.04196 118.54637 252.63948
145.54674 118.34856 252.22647
298.24493 118.70659 252.04901
299.49014 118.58248 252.19441
300.48245 118.1673 252.27936
301.66165 118.63329 252.46887
302.36652 118.27605 252.52402
303.38351 118.903 252.72643
304.04071 118.12456 252.72566
305.44482 118.74879 252.95782
475.82465 118.3167 252.88475
477.38449 118.4324 252.4808
478.38544 118.53357 252.23425
504.99756 118.47237 252.96912
505.49503 118.47183 252.72145
506.32339 118.32519 252.32556
144.28168 119.29332 252.72064
145.86295 119.83827 252.48161
147.32779 119.69064 252.03247
297.66455 119.94169 252.31711
298.77814 119.68405 252.36244
299.95001 119.95956 252.61353
300.24228 119.08704 252.36453
301.64487 119.60891 252.69513
302.85721 119.47886 252.80292
303.43109 119.38754 252.84677
304.14261 119.57784 252.99611
477.50684 119.59836 252.70435
478.99332 119.04696 252.12079
479.72452 119.68989 252.09401
505.84888 119.21668 252.40623
506.24881 119.44451 252.11732
145.45482 120.20142 252.76198
146.47659 120.38731 252.58348
147.58932 120.65005 252.46114
148.24376 120.41739 252.12996
149.28403 120.93874 252.2166
294.21481 120.58343 252.2151
295.3092 120.38865 252.24493
296.26166 120.65844 252.51662
298.39105 120.19837 252.52368
299.56537 120.61176 252.90594
300.57843 120.35415 252.88531
302.65308 120.01812 252.98085
478.39633 120.19616 252.71004
480.22745 120.57695 252.39154
481.74982 120.71608 252.02977
504.20468 120.51702 252.59952
148.47641 121.30151 252.71912
149.40918 121.39158 252.57129
150.51765 121.8761 252.83536
151.41827 121.71275 252.40387
152.98903 121.86167 252.21527
193.51218 121.94427 252.90109
195.48695 121.78659 252.98817
197.22713 121.99135 252.65826
199.62219 121.71818 252.86084
201.25772 121.85645 252.65384
202.66643 121.77692 252.72704
203.57785 121.89042 252.58594
204.47543 121.75678 252.73314
205.09122 121.61827 252.88948
206.91187 121.88608 252.55121
207.24768 121.66727 252.80466
208.26086 121.7185 252.73315
209.24843 121.52982 252.92229
210.41603 121.81638 252.59171
211.30302 121.63573 252.78371
212.9675 121.69185 252.74988
213.00488 121.85517 252.56136
215.16519 121.84358 252.62563
216.43315 121.76564 252.74745
217.51639 121.68931 252.85614
218.71373 121.77876 252.78532
220.49588 121.82312 252.7746
221.73776 121.90079 252.71182
225.80934 121.82822 252.95345
285.8959 121.6954 252.09993
287.3472 121.78171 252.38475
288.66714 121.49597 252.25075
289.51041 121.93632 252.8486
290.59409 121.6282 252.62512
291.24683 121.25407 252.34717
292.77359 121.35104 252.62553
293.40015 121.16972 252.53125
294.46246 121.41835 252.88257
296.52631 121.1014 252.86801
479.75848 121.08888 252.90013
480.45331 121.21198 252.79469
481.72266 121.49356 252.69246
482.52039 121.33918 252.33228
483.25073 121.65356 252.40416
484.55817 121.7579 252.0963
501.25815 121.91319 252.61842
502.62772 121.35281 252.63179
503.38022 121.5667 252.08521
504.12866 121.10122 252.20123
152.65865 122.2381 252.84825
153.77702 122.40706 252.91005
155.39998 122.3186 252.3679
157.67238 122.65013 252.62225
158.93391 122.63595 252.26241
159.57213 122.79778 252.63393
160.45068 122.89297 252.84409
161.48778 122.93463 252.92404
162.29424 122.91116 252.62579
164.5164 122.93978 252.446
168.74501 122.97583 252.75453
170.63078 122.97118 252.54895
172.57483 122.97055 252.29211
173.54221 122.83913 252.95309
174.82568 122.90669 252.46983
175.63458 122.92873 252.21021
176.71082 122.818 252.57727
177.97879 122.8995 252.07518
178.48778 122.74298 252.61162
180.3047 122.8037 252.22412
181.65709 122.70715 252.40556
182.44537 122.63087 252.49837
183.5235 122.60712 252.46429
184.68227 122.75119 252.00314
185.38196 122.67187 252.16434
186.37637 122.49683 252.48242
187.60229 122.55406 252.23894
188.44621 122.2549 252.742
189.87032 122.26495 252.61696
190.3651 122.23583 252.63629
192.31549 122.22641 252.54637
193.26743 122.39045 252.2272
194.59196 122.28359 252.35072
196.27603 122.16798 252.44162
197.23657 122.25295 252.25935
198.38313 122.19131 252.30003
199.8195 122.02924 252.47408
200.40919 122.01425 252.47377
201.50005 122.04233 252.41808
202.3768 122.0502 252.39563
204.76129 122.21455 252.11752
207.55385 122.08534 252.28036
208.54376 122.08697 252.26605
209.40257 122.02142 252.35533
211.37149 122.1321 252.16371
213.45856 122.12738 252.20833
215.57837 122.28333 252.02101
216.4016 122.18722 252.18628
217.51561 122.2086 252.17987
218.78467 122.25058 252.1458
219.25145 122.13361 252.33443
220.45853 122.22147 252.22627
221.81741 122.35757 252.04262
222.56328 122.09216 252.47491
223.27908 122.33605 252.11238
224.38876 122.09685 252.52539
225.52385 122.26682 252.3295
226.12335 122.19816 252.46704
227.37088 122.05454 252.75441
228.41689 122.42141 252.21092
229.88737 122.52158 252.09029
230.76025 122.2309 252.66066
231.6608 122.42998 252.37276
233.59695 122.42458 252.46358
234.4025 122.24798 252.84842
235.06287 122.36226 252.67102
237.65495 122.58388 252.40732
238.47054 122.58112 252.43745
239.43913 122.64146 252.38397
240.35124 122.54831 252.68542
241.1611 122.71014 252.35573
242.89047 122.62545 252.73975
243.55093 122.73682 252.46753
244.83067 122.70961 252.66148
245.36241 122.85055 252.23112
246.13284 122.86398 252.23381
247.36194 122.7773 252.62009
248.57352 122.81007 252.63362
249.48911 122.90656 252.27179
251.62486 122.91968 252.32526
252.55118 122.90185 252.55148
253.13943 122.89647 252.69702
254.59639 122.96175 252.41727
255.55969 122.95398 252.54823
259.65881 122.97889 252.56499
260.42667 122.97903 252.84747
265.26834 122.97845 252.63809
267.48254 122.91581 252.36995
268.13232 122.96493 252.78165
269.8978 122.91662 252.6546
270.23065 122.96347 252.99557
271.57666 122.78804 252.3094
272.87323 122.8616 252.76239
273.56332 122.66541 252.18372
274.52496 122.76731 252.63205
275.63376 122.69006 252.52121
276.58914 122.51058 252.18755
278.38257 122.52519 252.47539
279.27701 122.55636 252.62524
280.30716 122.26221 252.1882
281.60046 122.48778 252.75829
282.52283 122.07339 252.16141
285.29587 122.11696 252.55943
286.1756 122.05212 252.58444
287.64728 122.14262 252.89621
483.62592 122.11349 252.8714
484.47485 122.14669 252.67343
485.87286 122.45073 252.73793
486.61157 122.47186 252.59135
487.46341 122.58144 252.53642
488.17996 122.75726 252.78218
491.17432 122.90091 252.35002
495.03885 122.87935 252.98337
496.80252 122.83103 252.5209
497.48926 122.68894 252.70923
498.4928 122.58173 252.56613
499.4689 122.40739 252.5582
501.11847 122.31241 252.04863
147.66705 113.89851 253.85837
148.75594 113.70883 253.86952
149.51166 113.7535 253.63728
150.36482 113.68524 253.52693
151.81963 113.45844 253.65297
152.27199 113.43097 253.63721
153.0493 113.62405 253.02702
154.79066 113.22796 253.586
156.50972 113.25927 253.0961
157.61981 113.09905 253.50792
158.42537 113.07882 253.43501
159.9118 113.00509 253.8979
160.32396 113.00819 253.67065
161.53951 113.02487 253.26711
162.64247 113.0111 253.5946
163.25536 113.04543 253.98251
164.49744 113.03011 253.58141
165.45149 113.05237 253.56683
166.603 113.14996 253.95781
167.86496 113.06387 253.26196
168.94138 113.12505 253.45206
169.61609 113.23366 253.73663
170.62335 113.14703 253.28682
171.4705 113.27358 253.59229
172.64297 113.33188 253.59085
173.27525 113.37225 253.61293
174.58781 113.42345 253.57399
175.58264 113.58923 253.78337
176.80038 113.6891 253.80481
179.17793 113.4879 253.1123
181.69226 113.84378 253.51276
182.39006 113.84078 253.44371
184.62407 113.97274 253.43147
185.06485 113.75688 253.06464
236.50552 113.89125 253.18112
239.20483 113.66059 253.01239
240.38017 113.79425 253.32434
241.26811 113.6993 253.24828
242.53085 113.61732 253.21152
243.04628 113.66496 253.33823
244.31412 113.52828 253.18575
245.24797 113.51691 253.24945
246.91675 113.37344 253.05748
248.80789 113.52663 253.567
249.2487 113.54002 253.60481
250.47221 113.46725 253.56824
251.89194 113.49191 253.74725
252.73524 113.40649 253.63924
253.80486 113.48398 253.93109
254.64471 113.18775 253.2099
255.40533 113.29323 253.59146
256.51611 113.16373 253.3098
257.43237 113.26474 253.76945
258.73965 113.1429 253.48776
259.46658 113.09766 253.34244
261.42456 113.07849 253.40192
262.67197 113.07236 253.41359
263.58389 113.11279 253.87387
264.57968 113.02642 253.42932
265.60611 113.04972 253.68613
266.63882 113.02538 253.50679
267.41217 113.01529 253.48894
268.3923 113.01279 253.51514
269.07767 113.01189 253.56805
270.48969 113.01642 253.5979
271.51126 113.00835 253.49806
272.4201 113.06537 253.02699
273.70828 113.02074 253.72214
274.33932 113.02328 253.69109
276.19214 113.05132 253.6097
277.92636 113.07928 253.64262
278.29947 113.09653 253.60959
279.17145 113.11961 253.61133
280.36951 113.16488 253.55673
281.00134 113.19347 253.50121
282.03583 113.16074 253.7762
283.64154 113.34734 253.38737
284.49878 113.43974 253.27142
285.88208 113.32684 253.72244
286.52808 113.45123 253.52786
287.75461 113.5797 253.38387
288.52744 113.50922 253.62801
289.42197 113.84782 253.13654
290.60806 113.89631 253.20865
291.3378 113.73002 253.57077
292.05609 113.58834 253.8972
293.35593 113.74062 253.78633
294.63879 113.8804 253.7305
295.2699 113.91117 253.76216
481.30365 113.8047 253.71432
482.57602 113.72363 253.48686
483.57376 113.6156 253.3932
484.65082 113.339 253.65439
485.26965 113.34403 253.43214
486.36462 113.1605 253.70738
488.58734 113.06362 253.48593
489.21887 113.03471 253.50369
490.40222 113.01378 253.82149
491.64304 113.03054 253.45447
492.43988 113.03158 253.37709
493.7464 113.18145 253.74934
494.724 113.13863 253.21808
495.57138 113.34676 253.59752
496.60675 113.55508 253.70908
497.65451 113.72119 253.57335
498.33362 113.98251 253.71863
143.90965 114.64428 253.99005
144.07443 114.96468 253.66849
145.46043 114.70511 253.51439
146.21933 114.47639 253.53094
147.44968 114.13795 253.58974
148.31493 114.30984 253.14653
149.5544 114.11314 253.07898
184.70297 114.18427 253.69217
185.4007 114.34807 253.81989
186.65395 114.1544 253.47559
187.58481 114.34935 253.62091
188.25285 114.43589 253.64519
189.59024 114.49469 253.53172
190.83109 114.42384 253.45486
191.75964 114.5044 253.47327
192.69336 114.59225 253.52678
193.11951 114.94442 253.8017
194.28534 114.59937 253.43495
195.44986 114.43256 253.22147
196.72679 114.74799 253.45813
197.34839 114.79707 253.47528
199.55423 114.71346 253.29982
200.38965 114.69981 253.23853
201.35031 114.80299 253.31041
202.55334 114.78837 253.2919
203.63843 114.70889 253.21179
205.76093 114.69005 253.17618
206.71828 114.89596 253.32739
207.45995 114.74119 253.19835
209.42273 114.56997 253.0144
210.73969 114.85946 253.25127
211.01196 114.94035 253.31024
212.47601 114.68424 253.11813
213.19975 114.76085 253.18958
214.47568 114.74794 253.21307
215.20468 114.70002 253.19754
217.71712 114.79124 253.32172
218.17581 114.72128 253.2856
219.72404 114.65747 253.25146
220.56212 114.92628 253.49921
221.75351 114.6606 253.3121
222.2776 114.59146 253.25638
223.25288 114.85444 253.50693
224.41446 114.36376 253.09889
225.60976 114.45896 253.25867
227.30229 114.8289 253.69098
228.56396 114.40149 253.35066
229.4816 114.43359 253.44757
230.20102 114.31142 253.33707
231.62724 114.84166 253.93974
232.75806 114.36983 253.5564
233.31071 114.46885 253.69379
234.2926 114.27667 253.52341
235.45715 114.22184 253.53581
236.45346 114.53737 253.93488
237.81813 114.21738 253.68893
238.50835 114.27412 253.81308
240.51324 114.04532 253.70056
241.58556 114.13777 253.9066
292.60001 114.13009 253.14214
294.68213 114.21214 253.30128
295.79291 114.10591 253.5672
298.64703 114.8224 253.1998
299.50348 114.46587 253.63876
300.43655 114.47141 253.74037
301.4928 114.62994 253.73645
302.89136 114.88519 253.67615
303.42227 114.84911 253.76962
305.26984 114.99815 253.89343
477.30405 114.88638 253.60506
478.57974 114.53865 253.59721
479.59814 114.76051 253.07881
481.30222 114.13703 253.2373
499.69214 114.4104 253.68925
500.37146 114.1528 253.09322
140.98291 115.99711 253.93343
142.50479 115.5176 253.73709
143.51558 115.48642 253.49402
144.69432 115.43929 253.16864
145.34888 115.30724 253.07458
192.90924 115.0063 253.85992
194.2368 115.2405 253.96703
197.4413 115.36877 253.88171
198.57253 115.3349 253.80397
199.63039 115.50076 253.84973
200.58067 115.56725 253.84268
201.33057 115.59528 253.84297
202.46852 115.80608 253.95724
203.38931 115.4104 253.72643
204.57307 115.40841 253.71111
205.73926 115.54869 253.76253
206.61903 115.41731 253.69131
207.37053 115.69268 253.8335
210.11189 115.34476 253.60722
211.4397 115.35161 253.5822
213.53242 115.49179 253.71881
214.64409 115.77819 253.90013
215.35495 115.49255 253.75266
216.20418 115.23852 253.63138
218.49097 115.45816 253.81503
219.62106 115.04552 253.56891
220.56062 115.17251 253.67737
221.65959 115.19006 253.7225
222.0961 115.30885 253.81102
223.46326 115.3857 253.88855
224.63007 115.2499 253.8571
225.24174 115.10907 253.79298
226.57384 115.13274 253.88483
227.41408 115.04749 253.86557
301.69568 115.23485 253.26866
302.44601 115.67211 253.10402
303.23608 115.60737 253.2439
304.23468 115.27649 253.57275
305.57437 115.50077 253.59782
307.60587 115.54492 253.82681
308.76428 115.61716 253.93233
309.03058 115.8918 253.82175
473.83401 115.94047 253.85567
474.65692 115.73864 253.74333
475.72641 115.38641 253.6727
476.51172 115.44452 253.42194
478.0148 115.37556 253.05603
501.64014 115.75835 253.93959
502.29056 115.12737 253.22906
503.26022 115.7164 253.1834
140.47028 116.60189 253.86707
141.43932 116.92623 253.47691
142.60962 116.13457 253.39401
143.42923 116.36093 253.0627
303.55212 116.16623 253.01553
305.44836 116.57127 253.1205
306.38593 116.31449 253.31779
307.11792 116.18845 253.45624
308.32776 116.16049 253.62061
309.99353 116.867 253.60214
310.3923 116.9525 253.63383
311.53098 116.52462 253.9024
472.25507 116.72711 253.93253
473.53711 116.49329 253.71358
474.41489 116.38927 253.5211
475.5383 116.19246 253.29842
476.33163 116.3803 253.01001
503.05124 116.94491 253.75558
504.28513 116.6781 253.12019
139.95107 117.48517 253.82196
140.12817 117.11371 253.83127
141.57327 117.247 253.38184
142.34302 117.1025 253.17976
305.75241 117.0519 253.03166
306.37836 117.30379 253.07196
307.92993 117.45892 253.25005
308.47815 117.49596 253.32014
309.5032 117.83743 253.41595
310.40247 117.7846 253.5323
311.39529 117.4252 253.68916
312.4389 117.66232 253.79596
313.78775 117.76234 253.96072
471.92273 117.19382 253.90765
472.7258 117.35931 253.7066
473.5708 117.50769 253.49998
474.22675 117.37897 253.33847
475.29254 117.5916 253.03958
503.24353 117.30785 253.7388
504.71036 117.07058 253.02293
139.51477 118.17867 253.93344
140.91948 118.46643 253.5379
141.62456 118.76277 253.36676
142.06935 118.67299 253.21812
306.73352 118.35056 253.07983
307.50693 118.42024 253.18863
308.29114 118.49219 253.30194
309.95343 118.7525 253.52728
310.50467 118.89798 253.62413
311.37152 118.37386 253.66661
312.12708 118.42518 253.76523
313.58972 118.2056 253.93588
471.92459 118.55586 253.88634
472.14886 118.69299 253.836
473.67264 118.70712 253.49161
474.37903 118.66133 253.31567
502.88998 118.73229 253.89285
503.25409 118.62573 253.73462
504.0867 118.06155 253.4097
140.60443 119.2944 253.79239
142.77943 119.8641 253.34038
143.16348 119.5387 253.12537
208.19504 119.94615 253.99832
210.41309 119.96686 253.96324
304.94125 119.57713 253.09668
305.47534 119.27667 253.08032
306.75494 119.36324 253.25864
307.5463 119.83758 253.52608
308.67407 119.77897 253.64326
309.55563 119.18826 253.5649
310.69864 119.68608 253.85735
472.91037 119.35595 253.80504
473.23276 119.48655 253.77267
474.65161 119.60989 253.47568
475.5939 119.66256 253.22563
502.54199 119.82686 253.73026
503.40271 119.46924 253.47232
504.24017 119.34171 253.13225
142.94707 120.56267 253.65607
191.69684 120.93005 253.96776
194.20824 120.92873 253.84225
196.13179 120.84277 253.80617
197.39191 120.99361 253.63475
198.59061 120.92682 253.62302
199.85876 120.88461 253.58992
200.43613 120.58552 253.76492
201.12881 120.65731 253.71925
202.37732 120.72737 253.65831
203.38846 120.62073 253.71265
204.02507 120.19979 253.9399
205.46606 120.60907 253.68268
206.50015 120.67363 253.62927
207.60603 120.39053 253.77737
208.35059 120.36516 253.79095
209.20158 120.55566 253.67949
210.43559 120.50525 253.6749
212.5378 120.62273 253.60666
214.65912 120.67838 253.65103
215.48105 120.44968 253.78525
216.47543 120.39491 253.85181
218.55894 120.71786 253.69672
219.24048 120.76644 253.69563
221.44011 120.67423 253.81216
222.35385 120.5299 253.91414
223.68475 120.69551 253.84814
225.64479 120.90846 253.79866
299.06076 120.86179 253.00186
300.46021 120.76088 253.11868
301.68356 120.60154 253.17393
302.68784 120.92747 253.5106
303.03806 120.31828 253.16754
304.61072 120.99546 253.80603
305.62134 120.46584 253.58733
307.21323 120.56531 253.84456
308.79242 120.10912 253.79637
473.91904 120.11317 253.86354
474.72842 120.4806 253.84802
475.61703 120.52378 253.64308
476.08914 120.81622 253.69501
477.63318 120.61272 253.1554
478.60345 120.95078 253.12555
501.44067 120.50037 253.87561
502.2384 120.29325 253.63356
503.30557 120.32216 253.13272
143.14413 121.09637 253.98294
144.79066 121.08543 253.5181
145.61176 121.34929 253.52109
146.61705 121.51233 253.41855
147.49716 121.96726 253.71727
148.53271 121.72667 253.14178
181.45944 121.80704 253.99872
182.72653 121.759 253.93959
184.26027 121.73267 253.83029
185.6136 121.69834 253.73846
186.6089 121.75286 253.58643
188.33194 121.43681 253.7626
189.90508 121.3458 253.72246
190.6219 121.4847 253.5531
191.61539 121.46364 253.47787
193.48875 121.4696 253.41682
194.36964 121.5565 253.28363
196.57541 121.07861 253.61398
197.46489 121.40147 253.28987
198.32886 121.2748 253.36441
199.57608 121.16167 253.39236
200.27914 121.18085 253.35364
201.70615 121.31198 253.21519
202.19017 121.21368 253.28951
203.01472 121.09595 253.38268
204.48615 121.24702 253.23308
205.74252 121.29266 253.18494
206.31943 121.16441 253.2934
209.88763 121.40598 253.02991
210.62329 121.18633 253.21594
212.47098 121.30296 253.12263
213.29955 121.12793 253.29355
214.64992 121.19861 253.27054
216.11214 121.1641 253.3331
218.21228 121.0783 253.44469
219.72903 121.39391 253.20789
220.42157 121.29778 253.31361
222.51981 121.39418 253.26698
223.59064 121.34496 253.32722
224.43002 121.47104 253.26324
226.9698 121.77957 253.07513
227.44312 121.30869 253.57973
228.49715 121.58144 253.358
229.35448 121.09591 253.86707
230.38409 121.40244 253.65401
231.37086 121.70729 253.39291
232.51718 121.79295 253.36569
233.64424 121.54074 253.70723
234.57782 121.52317 253.76965
236.50459 121.5795 253.82091
238.74637 121.97017 253.54582
239.29071 121.88729 253.6893
240.76054 121.7352 253.99162
241.30481 121.79354 253.96753
243.20569 121.95205 253.9371
293.48648 121.75414 253.10741
294.62476 121.86168 253.3848
295.42542 121.73543 253.32799
296.47333 121.53277 253.25528
297.55798 121.5926 253.45813
298.62573 121.3585 253.37125
299.31277 121.67359 253.74617
301.4155 121.64929 253.98744
302.02417 121.20409 253.64157
303.29483 121.02716 253.66458
477.02811 121.29356 253.82602
478.54886 121.36276 253.49054
479.61368 121.57732 253.41409
480.17767 121.67162 253.32996
481.21442 121.84035 253.23601
498.78888 121.68091 253.97546
499.53125 121.64729 253.67014
500.30096 121.32858 253.70026
501.51834 121.28697 253.21802
148.45529 122.14435 253.72284
149.6031 122.27505 253.65645
150.91177 122.08857 253.01566
151.42003 122.43318 253.547
152.17122 122.53646 253.56714
153.51874 122.48489 253.13458
154.23492 122.68188 253.46704
155.65451 122.82414 253.62085
157.48955 122.89621 253.53662
158.15634 122.94276 253.63516
159.18945 122.9772 253.64951
165.66109 122.92163 253.74161
166.37544 122.85973 253.94321
167.6048 122.8963 253.51331
170.59975 122.88636 253.13594
171.65152 122.77332 253.39911
172.64502 122.77822 253.3033
173.46237 122.49866 253.9035
174.58215 122.672 253.34334
175.58289 122.60213 253.36444
176.4998 122.48252 253.5063
177.54991 122.41235 253.52434
178.52449 122.23053 253.70961
179.46269 122.2988 253.47241
180.68663 122.38956 253.2205
181.46188 122.32171 253.25572
183.38237 122.21069 253.27039
184.41594 122.19337 253.20518
186.08203 122.10164 253.19232
187.12335 122.07657 253.1351
232.89886 122.04514 253.07402
237.69756 122.1432 253.20621
238.81937 122.23453 253.15999
241.99622 122.18877 253.49318
243.4455 122.39941 253.24731
244.53409 122.36204 253.40216
245.64957 122.28143 253.6167
246.78107 122.41136 253.51231
248.55925 122.37462 253.73395
249.68236 122.55989 253.41795
250.31535 122.4011 253.82069
251.31477 122.55726 253.59367
252.71089 122.72451 253.29449
253.25096 122.78659 253.17476
254.58026 122.69349 253.58041
255.28491 122.82891 253.23224
257.66156 122.78035 253.63788
258.11084 122.88247 253.28641
259.90863 122.94306 253.17973
260.36694 122.87035 253.56177
261.51318 122.89693 253.54749
262.15216 122.96522 253.1785
265.57953 122.94304 253.7585
266.95401 122.95171 253.8313
269.58548 122.97028 253.80115
272.3833 122.96686 253.33794
273.35193 122.96841 253.47516
275.93414 122.9397 253.54721
277.26865 122.94664 253.75629
278.65375 122.86809 253.50212
279.32831 122.74805 253.1273
280.37213 122.83353 253.60356
281.30969 122.78141 253.48747
282.01221 122.80734 253.66408
284.44748 122.57438 253.30505
285.71405 122.62827 253.58611
286.32965 122.54085 253.48515
287.50607 122.5203 253.55734
288.73676 122.41325 253.48947
289.59567 122.13389 253.12537
292.68454 122.10674 253.46782
293.37323 122.24229 253.76727
294.09946 122.0953 253.6174
481.42603 122.02966 253.42351
482.58051 122.23032 253.40111
483.48486 122.3474 253.32764
484.80637 122.53355 253.28374
486.39206 122.86979 253.80009
487.40869 122.87841 253.56984
488.45483 122.8909 253.23792
492.54993 122.95541 253.43245
493.84985 122.91072 253.29065
494.43176 122.80859 253.56192
495.91388 122.7901 253.04645
496.73303 122.51363 253.4863
497.61057 122.0818 253.92825
498.40424 122.10616 253.55396
143.71281 113.98152 254.7962
145.7245 113.99366 254.23094
146.43745 113.69572 254.50822
147.02156 113.621 254.51273
148.7019 113.45 254.39572
149.76125 113.47761 254.08852
151.52888 113.19891 254.48157
152.65709 113.05914 254.80484
153.51248 113.09246 254.54919
154.70157 113.10627 254.10901
155.51892 113.02576 254.59932
157.25592 113.01422 254.74974
158.11247 113.02055 254.76424
159.20316 113.02613 254.40094
160.37047 113.04679 254.41084
161.94016 113.05545 254.28632
164.33934 113.25302 254.72462
165.27301 113.16452 254.25064
166.84341 113.23338 254.20497
167.66051 113.43041 254.59006
168.88904 113.58573 254.70825
169.64626 113.65285 254.71382
170.85753 113.47937 254.21056
171.11018 113.67352 254.55011
172.62125 113.71133 254.40508
174.62961 113.696 254.11073
175.79533 113.88299 254.25523
176.41425 113.93452 254.25052
248.35933 113.87919 254.13078
249.32521 113.88762 254.21582
250.5123 113.87967 254.29614
252.91722 113.99316 254.69261
253.60652 113.79726 254.46623
254.37201 113.59132 254.21539
255.96185 113.81615 254.76065
256.59729 113.575 254.4221
257.72134 113.6976 254.72224
258.46439 113.57573 254.57544
259.73444 113.57817 254.7229
260.60791 113.52745 254.75035
261.54617 113.40648 254.57037
264.54626 113.32017 254.67996
265.34488 113.11364 254.06541
266.4313 113.1701 254.38164
267.51318 113.23992 254.75015
268.83856 113.11369 254.44426
270.8667 113.06264 254.36887
271.47552 113.10683 254.67165
272.67554 113.05307 254.46399
273.32816 113.0329 254.47331
274.72147 113.035 254.5481
275.59003 113.03786 254.67247
276.50894 113.04771 254.96973
277.73407 113.01057 254.59392
279.28992 113.00812 254.68352
280.66559 113.01848 254.51765
281.88232 113.03415 254.49792
282.55133 113.06008 254.30135
283.74899 113.05826 254.53937
286.22363 113.12575 254.47781
287.53159 113.14796 254.51857
288.1864 113.19181 254.46455
289.38989 113.13136 254.81839
290.28406 113.22309 254.60815
291.81696 113.29154 254.59203
293.1467 113.26041 254.80873
294.44186 113.38257 254.64293
295.42706 113.5067 254.51082
296.34515 113.531 254.57574
298.33081 113.56591 254.72668
303.63055 113.97785 254.71504
476.34991 113.95644 254.8636
478.43289 113.68906 254.73323
479.37601 113.71581 254.42245
480.61874 113.42168 254.65141
481.40601 113.4516 254.36681
482.06946 113.33278 254.47171
483.21472 113.15952 254.6958
484.60474 113.12714 254.41156
485.29065 113.03188 254.82761
486.68259 113.01288 254.70177
487.82761 113.00423 254.40277
488.53745 113.02361 254.4062
490.49301 113.09873 254.56177
491.59338 113.22964 254.733
492.79761 113.36363 254.68176
493.58994 113.3916 254.44295
494.4505 113.53099 254.4848
495.28525 113.7699 254.58707
496.41675 113.82455 254.26111
141.47739 114.54217 254.8018
142.29115 114.66211 254.45499
143.33057 114.52348 254.29698
144.28171 114.11504 254.46967
175.75011 114.49227 254.994
176.5267 114.21919 254.58693
178.53297 114.19654 254.2968
179.51126 114.08459 254.0417
180.37804 114.43661 254.34697
181.5889 114.4987 254.31552
182.52386 114.91378 254.59795
183.7205 114.80609 254.40517
184.92241 114.56275 254.07556
186.269 114.84421 254.20108
232.55309 114.99265 254.10724
233.32857 114.897 254.07639
235.50104 114.82039 254.13736
237.40546 114.55753 254.01726
239.37315 114.57957 254.20215
240.56587 114.8522 254.5396
241.51125 114.75279 254.52838
242.52402 114.29133 254.17897
243.71086 114.81381 254.77077
244.61177 114.30652 254.34639
245.42113 114.41813 254.51411
246.10295 114.25382 254.41341
247.47055 114.36215 254.65909
248.62726 114.41112 254.80185
249.26538 114.11008 254.50836
251.77109 114.16664 254.79019
253.39017 114.08826 254.86334
300.22562 114.07747 254.16058
301.7157 114.12906 254.28711
302.25119 114.26266 254.19537
303.24219 114.45438 254.11148
304.75284 114.33124 254.45081
305.84558 114.43823 254.45418
306.08813 114.50292 254.42819
307.39453 114.23404 254.8786
308.20825 114.41707 254.77222
310.7005 114.5792 254.93446
311.60284 114.75692 254.88481
472.16586 114.99008 254.82179
473.50037 114.56894 254.88153
474.33911 114.55488 254.69733
475.54196 114.54044 254.4187
476.42325 114.16264 254.5778
477.30057 114.37685 254.0815
478.12872 114.09224 254.20984
496.61469 114.29517 254.83347
497.45538 114.3837 254.56372
498.34436 114.68689 254.54375
138.37975 115.70493 254.85565
139.36407 115.29362 254.79735
140.54175 115.45808 254.35205
141.23465 115.2812 254.25487
182.57516 115.30464 254.8772
184.72548 115.18484 254.59915
186.97495 115.60308 254.65146
187.48454 115.38359 254.46342
188.86504 115.63351 254.48523
189.49991 115.43408 254.3111
190.56012 115.25273 254.1445
191.60007 115.16026 254.04436
192.5983 115.79198 254.35834
193.46376 115.6914 254.26579
194.53908 115.57699 254.15123
196.41 115.76181 254.15871
197.71288 115.9696 254.18536
199.09923 115.85031 254.06261
222.62033 115.81474 254.10655
224.1967 115.64337 254.06888
225.51682 115.74033 254.18713
227.68845 115.66111 254.27255
228.09958 115.74818 254.34106
229.42453 115.85897 254.46352
230.63982 115.454 254.31281
231.57025 115.25471 254.24599
232.61765 115.39423 254.38289
233.41193 115.54739 254.50766
234.86014 115.46514 254.5526
235.41934 115.43514 254.55624
236.02052 115.66186 254.73341
237.33075 115.9892 254.9679
238.31386 115.45099 254.76427
239.51335 115.38082 254.82915
241.76326 115.14867 254.86781
307.16501 115.00951 254.12427
309.61884 115.43121 254.14955
310.64212 115.27729 254.36656
312.29675 115.81396 254.27258
313.66071 115.31611 254.72563
314.36389 115.75932 254.56897
315.50995 115.6716 254.7597
316.39575 115.79346 254.79613
470.4458 115.41324 254.92102
472.5278 115.45216 254.41779
498.57825 115.23478 254.91837
499.54807 115.65737 254.77962
500.64374 115.61718 254.2737
501.42908 115.97749 254.14764
138.4624 116.37488 254.53873
139.53033 116.29387 254.24867
187.89972 116.63605 254.98967
188.04857 116.67859 254.98927
189.5426 116.57578 254.83029
190.35536 116.51184 254.76053
192.66487 116.21565 254.54868
193.72176 116.94786 254.70818
194.88774 116.50853 254.53137
195.41722 116.65223 254.54352
196.50476 116.26314 254.36909
197.49675 116.5824 254.41779
198.45877 116.55695 254.36664
199.2991 116.42848 254.28452
200.54071 116.59393 254.28075
201.85014 116.5111 254.24152
202.45798 116.53493 254.22418
203.74826 116.54349 254.22205
204.71597 116.56792 254.2249
205.83171 116.89944 254.30217
207.68317 116.30664 254.10611
208.21898 116.6695 254.21452
209.11716 116.71284 254.20604
210.42911 116.29156 254.07108
211.46301 116.65932 254.16064
212.66075 116.18301 254.03729
213.15421 116.68092 254.21124
214.77985 116.95959 254.31613
215.59743 116.47923 254.19894
216.46906 116.27084 254.15613
217.48877 116.52291 254.25154
218.44955 116.60801 254.31271
220.40549 116.72472 254.39243
221.50069 116.23491 254.25949
222.18951 116.66787 254.4189
223.63235 116.49895 254.39395
224.53862 116.41251 254.41077
225.62276 116.49386 254.49728
226.58032 116.33417 254.50534
227.55264 116.67846 254.65356
228.41376 116.19495 254.54689
229.79977 116.1199 254.60016
230.44493 116.62757 254.80148
231.55092 116.48029 254.82538
232.01457 116.92662 254.97403
233.72241 116.57506 254.97479
234.36584 116.162 254.86618
312.65207 116.46278 254.05608
313.1026 116.5294 254.09183
314.11444 116.38695 254.26057
315.3432 116.3494 254.43907
317.37476 116.49817 254.65573
318.51874 116.57882 254.76395
319.70422 116.83517 254.83676
467.48962 116.9274 254.97086
468.12775 116.50962 254.94394
469.69067 116.5195 254.58221
470.25122 116.83267 254.3616
471.26984 116.57504 254.20522
500.51523 116.50361 254.74524
501.31165 116.50053 254.41394
136.71249 117.66025 254.8188
137.44672 117.11208 254.65465
138.19417 117.75697 254.33623
139.23227 117.48319 254.03415
190.45518 117.53619 254.96213
191.29082 117.54294 254.92049
192.46146 117.90588 254.88435
193.17836 117.22635 254.78546
194.37862 117.70006 254.77496
195.56454 117.40088 254.68257
196.36528 117.56026 254.66022
198.37834 117.57297 254.55644
201.67352 117.50372 254.4314
202.69739 117.53783 254.42574
203.49995 117.38339 254.41437
204.48323 117.59087 254.41782
205.43686 117.50494 254.38721
207.06097 117.56046 254.38747
208.68707 117.91873 254.39052
209.04881 117.61343 254.36705
210.53767 117.49645 254.33272
211.29588 117.84468 254.35472
212.76503 117.49398 254.35358
213.51062 117.88422 254.39552
214.57765 117.51852 254.39758
215.36832 117.37361 254.4012
216.11371 117.46392 254.43016
217.70306 117.31404 254.44791
218.5623 117.39806 254.46623
219.38284 117.78132 254.52667
220.72369 117.56699 254.54303
221.61703 117.52991 254.54565
223.19501 117.61078 254.59805
225.31343 117.75936 254.71126
226.28889 117.52112 254.74297
227.15744 117.40091 254.7691
228.34006 117.92066 254.88866
229.66135 117.39911 254.92896
230.17017 117.58827 254.96893
231.96227 117.03388 254.99107
313.58774 117.14053 254.00562
315.03125 117.11875 254.19144
317.54706 117.3598 254.47299
318.14203 117.15485 254.57794
319.68774 117.47525 254.74104
320.21143 117.62724 254.77963
321.49289 117.35729 254.97424
467.18732 117.55061 254.94424
469.63828 117.8729 254.36368
470.64426 117.53078 254.16736
471.35236 117.2606 254.0287
500.68854 117.61538 254.9119
502.59299 117.54756 254.06451
136.27841 118.28239 254.95796
138.29007 118.69994 254.36041
190.43134 118.88208 254.90622
191.40456 118.43951 254.91037
192.58186 118.576 254.82782
193.397 118.13909 254.83569
194.76718 118.78159 254.70465
195.2666 118.60651 254.69565
196.32268 118.52072 254.65956
197.65196 118.45367 254.59224
198.56535 118.36097 254.54741
199.73683 118.90831 254.43352
200.4557 118.54872 254.45662
202.63037 118.56335 254.4223
203.64134 118.70922 254.39343
204.13275 118.31236 254.4283
205.45743 118.95612 254.33578
206.92441 118.03204 254.41493
207.40971 118.70023 254.3539
208.34244 118.38843 254.37885
209.93738 118.39458 254.3587
210.35901 118.5405 254.32188
211.24689 118.4864 254.3389
212.29825 118.59144 254.33638
213.58377 118.8217 254.32835
214.74281 118.02111 254.43053
215.32288 118.71061 254.3851
216.47914 118.36578 254.4472
217.19412 118.59263 254.4509
219.01041 118.6534 254.48338
220.36592 118.61018 254.5144
221.29642 118.56911 254.53052
222.80446 118.03987 254.61841
223.33472 118.07082 254.62917
224.45253 118.31584 254.66177
225.66986 118.65381 254.69119
226.49355 118.69246 254.73581
228.58443 118.78178 254.83559
229.5479 118.40679 254.92859
314.79047 118.42482 254.10648
317.47888 118.54935 254.4559
318.64392 118.48273 254.60095
319.32999 118.39817 254.67247
320.5282 118.61947 254.85718
321.30298 118.15104 254.90578
467.17279 118.46095 254.95251
468.51453 118.65636 254.66833
469.37259 118.19336 254.43015
470.60269 118.33275 254.15675
500.49524 118.51273 254.98959
501.12756 118.77294 254.67932
502.5914 118.39681 254.07332
136.69972 119.21075 254.96063
137.67822 119.77981 254.84488
138.70505 119.658 254.47473
139.68039 119.59311 254.15231
186.73183 119.83324 254.93675
187.54211 119.7093 254.91411
188.65753 119.64801 254.82516
189.35962 119.54464 254.79436
190.27258 119.715 254.68184
191.58995 119.34495 254.74123
192.59724 119.41966 254.66798
193.47894 119.19774 254.6882
195.48419 119.64124 254.44409
196.46286 119.3353 254.49872
198.30182 119.61517 254.31355
200.43398 119.34793 254.3006
201.50731 119.77576 254.14882
202.38306 119.16152 254.33054
203.64604 119.15365 254.31441
204.66965 119.26628 254.27332
205.95686 119.87747 254.05351
206.62772 119.13787 254.28661
207.47171 119.52873 254.1626
209.56625 119.74699 254.06451
210.69037 119.14149 254.2319
211.55104 119.77029 254.03116
212.47635 119.55142 254.12685
213.34149 119.90411 254.01297
214.37041 119.15132 254.28545
215.26123 119.63416 254.15912
216.32399 119.42687 254.25171
217.38026 119.79536 254.15269
218.30846 119.46289 254.28516
219.51877 119.56172 254.28328
220.77176 119.48827 254.33923
222.67488 119.03077 254.50671
223.7408 119.27536 254.47046
224.60602 119.40881 254.47348
225.62378 119.80955 254.39638
226.34935 119.54999 254.51111
227.69035 119.39892 254.64693
228.6935 119.36284 254.715
230.33961 119.69385 254.69397
231.50502 119.94234 254.66621
232.13394 119.63165 254.82826
233.43184 119.55136 254.91624
234.36595 119.55234 254.97429
236.33681 119.83182 254.97914
312.88632 119.62388 254.11784
313.62808 119.36793 254.12836
314.32117 119.45887 254.24339
315.81522 119.92974 254.60234
316.65692 119.27663 254.48114
317.75482 119.5018 254.69421
318.55823 119.82359 254.9014
319.25705 119.68025 254.93556
468.35147 119.44248 254.87926
469.53027 119.52228 254.64067
470.28094 119.28175 254.38504
471.52957 119.01902 254.03787
472.27277 119.82855 254.11159
500.66675 119.49411 254.6819
501.16415 119.72577 254.39923
502.23898 119.33906 254.04771
139.51204 120.49771 254.63588
140.39035 120.37544 254.30225
141.52777 120.91164 254.31155
182.63937 120.672 254.89163
183.54874 120.93655 254.61766
184.27649 120.5033 254.81883
185.64777 120.1356 254.91023
186.50276 120.71252 254.50208
187.86241 120.7042 254.39204
188.04062 120.20993 254.65555
189.61269 120.61351 254.29593
190.59189 120.7336 254.1543
191.46278 120.70823 254.13756
192.31749 120.28636 254.33728
193.56506 120.31423 254.25888
194.36148 120.32094 254.20529
195.64172 120.18856 254.22005
197.58319 120.31857 254.05421
198.67778 120.00928 254.14758
200.51735 120.14203 254.00879
202.67805 120.01248 254.0367
218.61749 120.1757 254.02255
220.55167 120.26949 254.0173
222.40233 120.12621 254.13313
224.06172 120.29108 254.09393
225.74039 120.59008 254.01955
228.54289 120.51403 254.21042
229.65845 120.46622 254.29333
230.34441 120.55097 254.29581
231.47012 120.47466 254.39815
233.43762 120.60271 254.43779
234.39792 120.50624 254.54477
235.47762 120.45715 254.62018
236.65759 120.46863 254.66914
237.29747 120.38781 254.77882
238.67567 120.98178 254.51102
239.48166 120.59393 254.8353
241.39191 120.7983 254.87022
306.74234 120.99619 254.07561
309.38257 120.64047 254.1749
311.92505 120.98514 254.7211
312.31555 120.32639 254.34984
313.00067 120.94766 254.82776
314.49173 120.40601 254.67406
315.08801 120.37805 254.72394
316.32724 120.34442 254.8707
318.2186 120.08044 254.97311
469.98288 120.00888 254.71953
470.3374 120.45996 254.86923
471.67184 120.42278 254.56219
472.28461 120.89547 254.70508
473.11682 120.67194 254.36847
499.51422 120.75478 254.52654
500.58804 120.23515 254.40369
141.14058 121.1265 254.59828
142.24272 121.63835 254.76126
143.32443 121.52439 254.34053
144.57452 121.61497 254.06995
145.16023 121.8938 254.24957
174.76332 121.74486 254.87573
175.57689 121.84198 254.64966
176.62119 121.90974 254.42729
177.21069 121.52678 254.78088
178.2948 121.36725 254.77101
179.35526 121.40706 254.59074
180.26459 121.43539 254.50256
181.57166 121.68356 254.13492
182.63527 121.3876 254.32274
183.30278 121.04232 254.563
185.60687 121.27245 254.16586
187.85748 121.17502 254.04662
234.08823 121.15488 254.08565
235.35341 121.1573 254.15379
236.19318 121.0579 254.2726
237.64323 121.16978 254.28816
240.47847 121.29879 254.40569
241.44379 121.48596 254.30846
242.32161 121.16693 254.67824
243.24602 121.47604 254.44847
244.74164 121.71873 254.33301
246.21291 121.67975 254.49573
247.47699 121.60181 254.68652
248.12567 121.7262 254.61307
249.43881 121.57785 254.88797
252.39397 121.77975 254.92177
254.7131 121.98935 254.9176
298.23245 121.99939 254.0144
299.69693 121.88692 254.05598
301.81015 121.98358 254.4458
302.04974 121.61267 254.03114
304.37952 121.76249 254.51335
305.13208 121.50025 254.30862
307.34793 121.49976 254.5878
308.74335 121.19334 254.49081
309.28781 121.39857 254.73222
310.32132 121.39695 254.86105
311.03223 121.35261 254.90678
312.36029 121.20084 254.9435
472.3194 121.24877 254.97658
475.49976 121.3474 254.29027
476.56403 121.65343 254.35312
477.27771 121.74715 254.23257
496.16977 121.71806 254.99783
497.64157 121.98851 254.06374
498.50827 121.3322 254.45746
499.12662 121.24379 254.29233
143.83771 122.09762 254.88077
144.79546 122.05569 254.55943
146.61803 122.36724 254.62488
147.44467 122.34456 254.35211
148.59032 122.72478 254.87708
149.63896 122.72487 254.65752
150.6769 122.70487 254.33116
151.39627 122.74567 254.29265
153.81844 122.90234 254.43559
154.36829 122.94804 254.55331
155.83896 122.9332 254.0831
159.56882 122.94818 254.67711
160.30072 122.92753 254.58742
161.50879 122.9421 254.38474
163.59848 122.84899 254.44824
164.82214 122.80425 254.45776
165.53558 122.73288 254.55157
166.78986 122.55926 254.78531
167.43666 122.63113 254.44641
169.76093 122.47546 254.43903
170.73271 122.5206 254.22591
171.1557 122.20578 254.74663
172.31641 122.30521 254.4063
173.41881 122.10587 254.59282
245.86337 122.03171 254.05333
248.46295 122.08946 254.18083
249.34349 122.08939 254.25394
250.37889 122.0332 254.42549
251.80893 122.32019 254.10985
252.86765 122.19527 254.41263
253.2099 122.41911 254.06461
254.02412 122.48877 254.00969
255.36783 122.29867 254.47456
256.57224 122.24054 254.73
258.65659 122.4334 254.60098
259.14719 122.47125 254.58142
260.5675 122.47363 254.73186
261.37155 122.61938 254.47997
262.46677 122.57239 254.70447
263.68713 122.69518 254.53806
264.46735 122.74566 254.44026
265.33472 122.73436 254.60062
266.55905 122.76485 254.64322
267.52643 122.88157 254.2856
268.42416 122.8178 254.62146
269.46869 122.83083 254.74339
270.24622 122.85537 254.7271
271.63602 122.86166 254.86981
273.89432 122.97941 254.36411
282.64505 122.92945 254.30974
283.75717 122.94455 254.54359
285.98749 122.84875 254.2982
286.34763 122.86272 254.39946
287.56955 122.75897 254.18222
288.47635 122.80671 254.48541
289.34378 122.7393 254.366
290.5834 122.65492 254.27237
291.08606 122.74329 254.56175
292.48285 122.68671 254.59515
293.4722 122.49435 254.24535
294.30209 122.37688 254.11092
295.75241 122.41942 254.36128
296.77124 122.57945 254.84297
297.06192 122.22524 254.19971
298.03415 122.22517 254.33275
299.71878 122.20905 254.50774
300.41965 122.43507 254.97668
301.49814 122.10867 254.58705
302.41821 122.24189 254.90373
304.4303 122.08382 254.90414
477.20862 122.07184 254.67624
478.0816 122.16415 254.58522
479.3959 122.26072 254.38733
480.66977 122.53306 254.56972
482.50659 122.7152 254.48018
483.41071 122.80763 254.51756
484.34512 122.83923 254.35704
487.35062 122.97096 254.11755
490.50467 122.87849 254.61493
491.19226 122.84328 254.56078
493.67322 122.56546 254.52148
494.37927 122.43466 254.54985
495.42868 122.32172 254.35417
496.14804 122.16341 254.38339
141.37633 113.91158 255.5965
142.39972 113.65769 255.72607
144.29117 113.59416 255.28404
145.73549 113.22701 255.80127
146.69283 113.37679 255.10422
147.90326 113.26741 255.09972
148.60281 113.07267 255.75114
149.33572 113.0219 255.98244
150.22168 113.05974 255.36826
151.37762 113.01197 255.62057
152.59648 113.0048 255.41832
153.60703 113.01797 255.37958
154.51672 113.02481 255.53923
155.49631 113.08382 255.81441
156.46465 113.03634 255.25154
157.44748 113.11951 255.52686
158.55057 113.15411 255.46509
159.25499 113.2185 255.48695
160.46085 113.2813 255.53389
161.65611 113.27749 255.30304
162.39447 113.43108 255.54527
163.36501 113.52518 255.57719
164.05771 113.63882 255.66512
165.65611 113.66943 255.42163
166.13423 113.51537 255.0658
167.87798 113.84598 255.33318
259.34909 113.99179 255.37056
262.35168 113.87831 255.52187
263.40466 113.85819 255.61772
264.53497 113.72681 255.51596
265.20239 113.74592 255.61575
266.61404 113.48876 255.28705
267.41922 113.57639 255.56917
268.4935 113.47906 255.4687
269.55765 113.29433 255.17741
270.147 113.4734 255.66116
271.60822 113.18853 255.06421
272.60657 113.29475 255.5025
273.25446 113.44308 255.98151
274.71326 113.18443 255.43307
275.56137 113.16529 255.43037
276.31924 113.15495 255.5257
277.57697 113.21282 255.8846
278.69128 113.13983 255.76949
279.37634 113.02015 255.10254
280.58408 113.09365 255.7655
281.30441 113.05638 255.61665
282.8905 113.00965 255.20073
284.44754 113.01635 255.3839
285.2475 113.01006 255.50436
286.62442 113.00586 255.411
287.547 113.00583 255.63739
288.3241 113.02401 255.41638
289.55225 113.04436 255.33366
290.35535 113.01883 255.71027
291.74353 113.09496 255.34746
292.74509 113.09344 255.45398
293.72314 113.08176 255.64337
294.68542 113.04317 255.97995
