# .PCD v0.7 - Point Cloud Data file format
VERSION 0.7
FIELDS x y z
SIZE 4 4 4
TYPE F F F
COUNT 1 1 1
WIDTH 1611
HEIGHT 1
VIEWPOINT 0 0 0 1 0 0 0
POINTS 1611
DATA ascii
394.90878 113.09917 61.043175
397.32895 113.1399 60.810177
399.21814 113.12267 60.803581
401.27197 113.07674 61.150887
402.92722 113.07697 61.193485
404.87567 113.09847 60.818001
407.10104 113.09333 61.084846
408.6698 113.1069 60.868031
410.94113 113.04981 61.254078
412.80701 113.05982 61.272133
414.75604 113.07105 61.08889
416.25211 113.35612 60.481647
419.48193 113.34413 60.926025
421.09155 113.05679 60.841423
422.76047 113.07697 61.07832
424.72336 113.05101 61.201862
426.77136 113.02503 61.389633
429.4054 113.05221 61.15073
431.03247 113.06696 60.74514
432.91336 113.06889 60.718155
434.84906 113.03139 61.004295
437.27963 113.03933 61.233498
438.94104 113.04166 61.054192
441.02448 113.03957 60.811207
442.72495 113.05094 61.440285
445.17673 113.01606 61.107403
447.36972 113.05072 61.411144
449.48514 113.03284 60.680859
450.87726 113.06495 61.017658
453.0892 113.04095 60.898262
454.90845 113.05579 61.235336
457.31107 113.05073 60.969421
459.11606 113.06234 61.227859
460.82434 113.05652 61.024242
463.29309 113.07056 61.276051
464.76089 113.05784 61.059063
466.8038 113.05283 60.910557
469.1282 113.094 60.955921
471.23453 113.03226 60.800411
472.9248 113.06089 60.991577
474.57837 113.02713 60.466507
477.32553 113.06819 60.958015
478.71213 113.08156 60.976883
480.95596 113.12028 61.312366
482.76639 113.10375 61.032261
485.21085 113.09338 61.003433
487.30984 113.06519 60.731888
488.80853 113.10397 61.015652
490.92349 113.13412 61.20253
493.3457 113.06059 60.645298
494.57593 113.07609 60.729607
497.19922 113.11383 60.928234
498.8942 113.16321 61.170673
501.24014 113.14854 61.024914
502.72354 113.09632 60.773438
505.05774 113.23061 61.421108
507.21536 113.13899 60.946922
509.43375 113.31033 61.613033
511.01157 113.18968 61.092773
513.03333 113.09927 60.694935
515.10406 113.19238 61.002472
516.9599 113.17747 60.96413
519.14728 113.25425 61.254501
520.83826 113.2215 61.078648
522.7724 113.21997 60.95615
525.15253 113.26569 61.03912
526.79572 113.19473 60.938332
529.25055 113.26707 61.064533
531.04089 113.24189 60.97596
532.79376 113.32221 61.130665
535.02625 113.36428 61.295212
536.8515 113.28038 60.989258
538.81061 113.37147 61.220531
541.01483 113.38385 61.234558
542.88574 113.42968 61.298927
544.9397 113.34622 61.06625
546.49658 113.52689 60.887817
106.7728 115.86137 61.923798
108.85482 115.9348 61.855583
110.38982 115.7197 61.935974
113.89036 115.87843 61.802124
115.40315 115.5751 61.932201
117.96717 115.39982 61.991405
118.4856 115.70725 61.811565
121.56403 115.31993 61.984028
122.9607 115.62016 61.788181
127.21568 115.83713 61.81144
128.51123 115.34205 61.857368
131.26421 115.23679 61.88023
133.22723 115.65976 61.607368
134.78482 115.35825 61.745892
137.42059 115.4925 61.634457
139.04343 115.44656 61.638725
140.53886 115.39282 61.632656
143.30219 115.49081 61.546021
145.19476 115.40254 61.563416
147.02318 115.55434 61.470032
148.8412 115.44177 61.474987
150.59737 115.33193 61.54211
152.71002 115.06255 61.684849
155.10117 115.32456 61.448509
157.21356 115.37325 61.40099
159.10045 115.14819 61.537312
160.90245 115.14537 61.502632
163.55074 115.0245 61.570805
164.94296 115.32578 61.319046
166.99533 115.10732 61.423687
169.43286 114.9948 61.476318
171.09163 115.1636 61.31987
172.98804 114.78238 61.591187
174.92136 115.03707 61.350716
176.95743 114.95949 61.39632
179.11993 114.93533 61.362923
181.00192 115.18904 61.135143
182.978 115.23339 61.080193
184.83488 115.16237 61.125721
186.97356 115.1204 61.137817
188.9975 114.73846 61.395893
191.01488 115.0838 61.107433
192.93233 115.13177 61.006958
194.75125 114.87405 61.165257
196.77399 115.2428 60.916534
198.93459 114.79949 61.205799
200.77975 114.71873 61.26519
203.37686 114.7515 61.125332
205.08987 115.03452 60.874203
206.75908 114.90806 60.992073
209.07286 115.05331 60.81842
210.93898 114.65862 61.098614
213.03186 115.17728 60.658459
215.0863 115.21571 60.574471
216.95586 114.62939 61.002869
219.15987 114.72813 60.940495
220.99487 115.07803 60.574303
222.91411 114.80254 60.777107
225.04395 114.7229 60.84008
227.11702 114.89421 60.627075
229.05626 114.80067 60.658203
230.81062 114.86479 60.605446
233.24197 115.03225 60.411316
235.293 114.56876 60.779102
236.89279 114.51673 60.777447
238.84187 114.73168 60.556061
240.75322 114.77869 60.468052
243.31543 114.56925 60.659576
244.67767 114.436 60.749187
247.60738 115.22388 61.19854
251.16783 114.6879 61.032593
252.98387 114.40907 60.636333
255.02388 114.41379 60.597794
257.10422 114.39453 60.580009
259.47275 114.31409 60.607021
261.04727 114.378 60.531097
262.40784 114.32579 60.547554
264.86057 114.54768 60.287563
267.08124 114.46713 60.334007
269.05539 114.48883 60.276783
271.3302 114.35392 60.383057
273.19128 114.35271 60.345905
274.97635 114.48521 60.184467
276.5885 114.63742 60.006115
280.77399 114.11647 60.482143
282.33212 114.20876 60.341774
284.86475 114.19685 60.332092
286.48926 114.23328 60.249897
288.82761 114.2672 60.179604
291.66687 114.05638 60.391472
292.60175 114.05296 60.381226
295.1637 114.11097 60.270943
296.66373 114.19497 60.13435
300.68301 114.09934 60.184029
303.15179 114.10126 60.141281
305.56772 114.14949 60.033245
307.27661 114.01649 60.195538
311.20428 114.08167 60.038811
312.4212 114.0902 60.006893
416.33548 115.06792 60.535545
419.33554 115.14059 61.241516
546.63531 115.21951 60.893833
72.435677 117.91454 61.999084
75.647644 117.5667 61.973671
76.803413 117.62946 61.949936
79.813782 117.56753 61.904644
81.486488 117.49075 61.885509
82.785027 117.37919 61.878723
85.141739 117.11124 61.892376
86.701881 117.22099 61.850426
89.153305 117.1325 61.820644
91.198341 116.92351 61.842522
92.572823 117.07925 61.787228
95.188904 116.57501 61.843201
97.277847 117.15173 61.702229
99.11393 117.19538 61.679901
101.15717 116.80701 61.713718
103.30402 116.83671 61.67474
105.1596 117.12174 61.588623
106.79392 117.13316 61.558811
108.55239 116.74177 61.582355
110.6442 116.6205 61.584862
113.25734 117.02913 61.444607
114.82037 117.32007 61.384571
116.95251 117.22043 61.366371
119.1219 116.89778 61.408714
121.22967 116.60078 61.445385
122.80069 117.34939 61.250107
124.18596 117.29579 61.460686
127.43329 117.24503 61.361298
129.15974 116.75713 61.262238
130.87762 116.94647 61.192104
133.05161 116.87258 61.179436
135.02382 117.07701 61.094929
136.64886 117.14986 61.059772
138.87309 117.06649 61.041725
141.06516 117.09543 60.991367
143.03207 117.10625 60.972248
145.07268 117.19386 60.92244
146.91075 117.13051 60.886436
148.75879 117.05766 60.880409
150.86545 116.92248 60.877541
153.15993 117.20132 60.797268
155.52657 117.36019 60.712738
157.10025 116.91791 60.780315
158.97385 116.92889 60.761356
161.30188 117.34819 60.64798
163.40964 117.04295 60.650032
164.67351 116.78545 60.670918
166.87794 117.00523 60.609394
168.83939 116.74062 60.621174
170.92741 116.95044 60.556004
172.79303 116.99574 60.510044
175.18794 116.70312 60.516346
176.7924 116.87713 60.478233
179.05876 117.27168 60.360474
180.85028 116.70843 60.446972
183.31375 117.03848 60.332939
184.99913 117.2401 60.277264
186.867 116.93285 60.302883
188.79163 116.7141 60.325481
190.70834 116.96849 60.230846
193.13467 116.75608 60.244202
194.93033 116.50079 60.259876
197.04518 116.78568 60.161404
198.99525 116.743 60.140007
201.14886 116.33198 60.211514
203.04539 116.30727 60.190765
204.5542 116.12124 60.232067
206.65933 116.3669 60.100334
216.47487 116.07263 60.063637
247.67772 116.92899 61.095646
250.76865 116.58478 60.917305
416.33548 117.08306 60.854931
419.33551 117.03597 60.930019
546.64258 117.35629 61.335674
74.971344 118.43195 61.984161
76.614113 118.09251 61.93169
79.478447 118.66604 61.933163
80.883301 118.4705 61.891663
82.92997 119.19093 61.97823
85.246941 118.43143 61.815613
86.991425 118.71267 61.831074
88.899307 118.78251 61.816326
90.833786 118.96769 61.83213
92.71994 119.17348 61.833344
95.101303 118.84628 61.72921
97.071304 119.41058 61.819782
98.366318 118.69939 61.672935
100.98566 119.21237 61.694897
102.83074 118.7554 61.584209
105.23993 119.10207 61.598061
106.70464 119.41944 61.678345
109.02881 118.61696 61.476391
110.88238 118.99274 61.501507
113.14076 119.27622 61.533558
115.12163 118.69487 61.385841
117.46046 119.18778 61.464668
118.7522 119.44848 61.477325
121.28508 119.39375 61.442177
123.46995 118.89993 61.278858
124.15659 118.25269 61.178436
127.39803 119.21269 61.436604
128.94806 119.25143 61.299026
131.00563 118.96111 61.175327
132.89362 119.01459 61.150539
134.99661 118.95636 61.113026
137.3882 118.71953 61.055542
138.77048 118.84902 61.040451
140.68655 118.71085 60.981834
143.03468 119.26771 61.052185
144.76585 119.31889 61.022644
147.02347 118.87111 60.912598
148.89543 118.99911 60.890076
151.36041 118.96159 60.843266
152.88692 118.95728 60.800056
154.8754 118.85899 60.756172
156.72557 119.29337 60.839191
159.00671 119.3027 60.820618
161.13251 119.11659 60.731213
162.77304 119.01855 60.675488
164.90176 119.18118 60.671906
167.01045 118.83955 60.597332
169.26384 119.23136 60.615192
171.21736 118.97024 60.534657
172.92339 118.77757 60.462543
175.25876 119.01286 60.484638
177.03433 119.04552 60.446022
179.21962 119.04769 60.426426
181.09358 118.80323 60.346302
183.05231 119.07249 60.373535
185.0309 118.94615 60.29361
187.155 118.92733 60.268646
189.03709 119.29798 60.289574
190.95567 118.76492 60.158203
193.19649 118.80231 60.149078
194.93239 118.81403 60.112507
196.65074 119.26688 60.189899
199.18217 119.04957 60.088379
201.3868 119.47082 60.151951
203.01682 119.26453 60.055634
205.17323 119.78317 60.176487
206.8734 119.6927 60.120037
209.54153 119.95847 60.178329
211.28168 119.76974 60.071953
213.23015 119.73891 60.027611
214.54182 119.76993 60.019207
216.13132 119.84881 60.026131
220.13942 119.97054 60.01162
247.73523 119.16123 61.276764
250.83249 119.08943 61.118416
416.33548 118.95135 61.077179
419.33551 119.0863 61.2146
546.63239 118.92515 60.709553
104.86565 120.08002 61.927841
107.03226 120.22202 61.96085
108.68265 120.12863 61.89032
113.98473 120.22883 61.850922
115.39362 120.35026 61.891315
117.09684 120.31276 61.8442
119.30685 120.35704 61.839893
121.24277 120.27591 61.757835
122.73794 120.07824 61.635361
124.21568 120.55245 61.88686
127.79095 120.41366 61.723454
129.00325 120.53547 61.780071
130.26738 120.41653 61.697052
133.03894 120.52069 61.705318
134.25134 120.65613 61.787891
136.94803 120.21523 61.474709
138.94812 120.61104 61.671379
141.29762 120.67269 61.670601
143.26711 120.61053 61.606453
144.84766 120.62841 61.605045
147.24899 120.65619 61.571041
149.41078 120.54643 61.492653
150.48297 120.84494 61.636215
152.60526 120.6125 61.480053
155.16264 120.9879 61.687836
156.71536 120.87001 61.57196
159.05692 120.6512 61.39378
160.83063 121.10663 61.67672
163.09654 120.93527 61.525452
165.08409 120.62961 61.26733
166.92513 120.74089 61.331207
168.91911 121.10166 61.543598
171.44139 121.09232 61.538906
173.16312 120.93212 61.353966
175.00282 120.957 61.366276
176.92856 121.08215 61.427502
179.28931 120.87143 61.212349
181.05536 121.02406 61.299118
183.05159 120.84753 61.145664
184.88182 121.21176 61.403248
187.07716 121.20508 61.350105
188.84009 120.91093 61.093311
191.01076 120.94728 61.112442
193.27299 120.95071 61.071362
194.94879 121.04052 61.105278
197.04424 121.16263 61.134678
199.14923 120.98387 61.042622
200.782 120.9576 60.959347
203.15878 120.99277 60.946281
205.39738 121.10316 61.005268
206.74481 121.01579 60.913559
208.85838 121.0886 60.942104
210.96906 120.76362 60.645687
213.12827 120.98219 60.775372
214.99283 121.20867 60.898727
216.72348 121.4144 61.074936
219.05374 121.13847 60.793144
220.938 121.4077 61.019939
223.19754 121.19037 60.75066
225.09311 121.29643 60.83028
227.16183 121.23275 60.78157
229.01167 121.05439 60.575623
231.13756 121.24619 60.675755
233.01115 121.11895 60.536163
235.3206 121.46638 60.825634
237.07784 121.28078 60.601387
239.12747 121.13074 60.431904
241.08575 121.31678 60.560566
243.22139 121.41811 60.631416
245.17261 121.42075 60.600315
247.39442 121.24228 60.983425
250.90701 120.93255 60.864853
253.25317 121.49735 60.533413
255.04666 121.30528 60.305714
256.65881 121.39786 60.37759
259.21359 121.48293 60.411613
261.08344 121.64856 60.551701
263.4906 121.43721 60.303352
265.23663 121.50491 60.337429
266.54584 121.60683 60.428997
269.07275 121.5281 60.293427
270.80606 121.66518 60.413185
272.83398 121.69924 60.415291
274.4689 121.53484 60.212746
276.79431 121.63436 60.282604
278.7597 121.59663 60.205013
280.75195 121.83968 60.42794
282.15781 121.50127 60.054585
285.07111 121.86994 60.400528
288.80646 121.93208 60.421341
290.37918 121.78284 60.20298
292.8295 121.78493 60.165379
295.33841 121.93317 60.317257
297.44501 121.83363 60.15834
298.73444 121.76007 60.044834
301.53958 121.95369 60.245899
302.94064 121.88445 60.124287
306.26196 121.93222 60.13871
316.56726 121.97295 60.029919
318.01447 121.98348 60.021511
416.33551 121.30861 61.182518
419.33554 121.23853 60.556419
546.6402 121.02333 61.187901
202.96169 122.89175 61.279697
204.96605 122.88235 60.870773
211.04628 122.93075 61.259453
217.02 122.88316 60.978573
218.82341 122.86421 61.121056
221.19008 122.93658 61.271797
222.90863 122.87909 60.92741
224.99722 122.81299 61.118603
226.99899 122.90475 61.346416
229.03868 122.86569 61.201797
230.93137 122.90182 61.165993
232.95934 122.9072 61.141644
236.79878 122.91685 61.026196
238.91309 122.82024 61.253887
240.90771 122.94481 61.174873
242.79129 122.86039 61.25185
244.92989 122.6905 61.407959
246.88545 122.84977 61.042286
251.19177 122.74622 61.099438
252.98236 122.74905 61.184418
255.00049 122.68707 61.29414
257.16815 122.82023 61.099995
259.03067 122.74412 60.94519
260.69839 122.82566 61.22327
262.96237 122.79279 61.043606
264.73892 122.81596 61.068237
266.93954 122.80164 61.267719
268.8699 122.84013 61.171856
270.95328 122.81605 61.205585
273.13681 122.95051 61.324528
275.09747 122.79192 61.164829
277.19858 122.80318 61.088737
279.05899 122.83896 61.181858
281.12173 122.81556 61.145435
283.31342 122.77932 60.985069
284.95877 122.88259 61.034252
286.86444 122.85109 61.049744
288.97943 122.71722 61.350765
290.99661 122.85019 61.049595
293.19482 122.87497 61.134754
294.87094 122.78217 61.070297
297.1788 122.83353 60.888039
298.87833 122.86102 61.183949
301.06549 122.94173 60.934505
303.15839 122.83364 61.022926
304.94324 122.84145 61.020187
307.01459 122.89094 60.93771
309.27399 122.71385 60.941509
310.83084 122.86425 60.971542
312.99713 122.76366 60.911602
314.93649 122.80526 61.071217
317.04926 122.88993 61.017738
318.99747 122.67046 60.713268
320.92633 122.86113 61.169403
322.93948 122.81493 60.741093
324.98758 122.89829 61.075718
327.02554 122.7913 60.830559
329.16437 122.92361 61.006729
331.03818 122.82611 61.014309
333.09433 122.83396 60.749428
334.80511 122.88784 61.106899
336.89856 122.86467 61.052109
338.85034 122.95754 60.898888
341.05978 122.89262 60.963852
343.28754 122.868 60.995125
345.17761 122.92682 61.072998
346.97122 122.90685 60.947884
349.13226 122.93885 61.272068
351.00336 122.90028 61.059963
353.02225 122.95432 61.071609
355.05472 122.90099 61.18251
356.98584 122.96677 61.149288
358.99036 122.94681 61.08741
360.7598 122.91079 60.94334
362.90302 122.92681 60.932819
364.89529 122.8711 61.031162
367.09885 122.90862 60.827915
369.00623 122.90977 61.055595
371.06427 122.88976 60.897533
372.91275 122.92079 60.982162
374.88077 122.97587 61.053696
376.9086 122.96946 61.143383
378.85944 122.9502 60.896297
380.71112 122.95509 61.070473
382.95096 122.96671 61.031338
385.06799 122.97146 60.833031
386.8685 122.94321 60.953293
388.9595 122.94628 61.049335
390.97159 122.96598 61.049118
394.9538 122.96152 61.168766
396.8262 122.95971 61.074028
398.95975 122.94907 60.740139
401.04999 122.94203 60.899704
402.77234 122.9656 60.859077
405.09473 122.94431 60.767059
407.20502 122.96733 60.957432
409.03772 122.96491 60.943623
415.26031 122.97902 60.933033
416.56998 122.79976 61.052803
419.07932 122.94707 61.196941
421.12811 122.96774 60.960506
425.03079 122.97539 60.984447
443.14188 122.97697 60.74614
465.09491 122.97485 60.893665
467.11453 122.97177 61.183189
470.84421 122.96758 61.053932
474.9458 122.94585 61.229446
479.056 122.97495 60.851318
483.09818 122.95805 61.190495
485.01596 122.97912 61.052399
487.09366 122.96884 61.038319
488.97791 122.95559 61.010109
490.8378 122.94781 61.016399
495.02896 122.95632 60.9352
496.86206 122.96241 61.112137
499.08896 122.9587 61.019852
500.99619 122.92938 60.996651
503.14017 122.92101 61.159088
505.06604 122.95327 60.954304
506.99506 122.96735 60.886383
508.93567 122.94764 60.903969
511.10181 122.95338 60.993053
512.81476 122.94681 60.856106
514.93774 122.92181 60.991173
516.76697 122.94666 60.998253
518.91595 122.95883 61.074497
521.06433 122.92789 61.101322
523.09174 122.83546 60.970078
525.04993 122.87446 61.095039
527.1095 122.93433 60.899761
528.79974 122.93035 60.858646
531.11469 122.91451 60.96553
533.01367 122.88835 60.92894
535.04224 122.96548 60.747742
536.90198 122.90955 60.943741
538.96948 122.89702 60.991898
540.99518 122.91084 60.957539
543.05963 122.86585 60.724773
545.19177 122.88522 60.847996
546.93793 122.93539 61.08828
85.048897 113.88821 63.979446
90.705627 113.87454 63.907322
92.682465 113.83076 63.93782
94.319206 113.79374 63.964191
97.550003 113.86925 63.803997
100.57342 113.72326 63.963528
103.46569 113.80841 63.795033
105.56729 113.81886 63.746048
107.01909 113.89345 63.616009
109.24039 113.80593 63.704998
110.92169 113.73569 63.784111
112.92809 113.68674 63.824799
114.88741 113.79258 63.642372
116.81704 113.73984 63.694195
119.09544 113.7999 63.572453
121.75839 113.96655 63.272766
122.80869 113.7891 63.527222
127.49221 113.60854 63.753891
128.65154 113.69216 63.586403
131.19943 113.68347 63.572742
132.80833 113.6288 63.636921
134.76836 113.80614 63.299171
137.30771 113.92919 63.074184
139.18886 113.53493 63.703537
140.99733 113.6582 63.474422
143.15805 113.61037 63.513428
145.22276 113.68948 63.317333
147.07611 113.6668 63.350491
149.20529 113.60376 63.397533
150.76971 113.58463 63.454487
152.98424 113.59956 63.397633
155.29736 113.63961 63.255474
157.10956 113.60734 63.288105
159.40535 113.52438 63.398582
160.9803 113.61905 63.237625
162.46231 113.43851 63.533234
164.61401 113.49699 63.397861
167.04372 113.53083 63.311302
169.21541 113.66824 63.023796
170.98059 113.5352 63.223064
172.43083 113.59065 63.078911
175.27734 113.62403 62.98914
176.96135 113.59659 62.979374
178.86235 113.50499 63.225689
181.10715 113.46548 63.198986
183.05318 113.56081 63.041889
185.28644 113.40202 63.277351
187.23631 113.55795 62.949364
189.17795 113.3716 63.34758
190.96921 113.42261 63.162109
192.72655 113.60803 62.775528
194.69955 113.51217 62.925888
197.20676 113.43067 63.04314
199.11635 113.59888 62.720772
201.15935 113.37978 63.134129
203.15625 113.35763 63.137177
204.79411 113.37846 63.061241
207.17725 113.58035 62.572979
208.99413 113.59937 62.445557
211.53699 113.30127 63.096058
212.90062 113.45959 62.716457
214.99312 113.28496 63.159496
217.04503 113.27088 63.151661
219.22348 113.18719 63.399876
220.7932 113.36101 62.793564
222.9696 113.29507 62.979305
224.66632 113.31709 62.960342
226.72093 113.35077 62.711872
228.97188 113.28322 62.928123
231.28708 113.41545 62.49577
233.07571 113.22495 63.045151
234.76138 113.26334 62.92205
236.834 113.22221 63.061127
238.8576 113.25565 62.907127
240.92244 113.2286 62.922546
242.73068 113.25457 62.846478
245.16756 113.08733 63.509071
246.83713 113.19526 63.034653
248.29256 113.3475 63.10067
251.66272 113.33085 62.969528
252.93561 113.17198 62.961521
254.75928 113.19543 62.8325
256.77423 113.16355 62.933411
258.99469 113.12714 63.026787
261.38297 113.11025 63.148773
262.89462 113.15253 62.865448
264.86423 113.14325 62.97086
266.7142 113.11995 62.935555
268.92688 113.15778 62.73304
270.99744 113.14787 62.746902
272.91357 113.14868 62.754108
275.01419 113.04031 63.416874
276.81854 113.11534 62.883614
278.91617 113.15 62.792236
280.99524 113.08287 63.085617
282.81485 113.06258 62.911213
285.09381 113.08226 62.86985
286.65475 113.09276 62.92366
289.0361 113.09399 62.789173
291.29858 113.07384 62.882122
292.64218 113.06818 63.114422
295.23672 113.06165 63.036903
296.84348 113.05828 63.040806
299.27612 113.08485 62.853329
300.84698 113.0658 63.092979
302.9274 113.04685 63.174606
304.99759 113.0365 63.091961
306.88174 113.0444 63.305805
308.94632 113.04905 63.057339
311.14981 113.07007 62.579147
312.98715 113.04057 63.061787
315.00732 113.04723 62.911808
317.16333 113.05201 62.965588
319.14706 113.04882 63.117031
320.58887 113.02701 63.068203
322.6983 113.046 63.251888
324.24506 113.07678 63.758587
327.05981 113.05042 62.988361
329.20169 113.04742 63.148045
330.90903 113.03428 63.058025
332.58087 113.08004 63.529736
335.2171 113.07033 63.101223
337.24933 113.05506 63.037014
338.7258 113.03873 62.99501
341.34814 113.03778 62.659065
342.91882 113.05171 62.857967
344.89124 113.06062 63.015137
347.12753 113.08511 63.151245
349.01584 113.07331 63.000755
350.98492 113.07286 63.07074
352.6058 113.06544 63.026058
355.12415 113.06494 62.801186
357.40158 113.0369 62.689526
358.33594 113.12573 63.417789
361.25003 113.07862 62.843243
363.23428 113.07355 62.832905
365.14493 113.1171 63.031948
367.19104 113.09306 62.890083
369.14069 113.09044 62.958809
371.08292 113.11693 63.057362
372.85098 113.07323 62.733227
374.49911 113.10955 62.929741
377.40054 113.15503 63.0947
378.70175 113.12009 62.887188
380.85513 113.17232 63.171326
382.92661 113.17937 63.025188
385.18655 113.17439 62.962341
386.90576 113.24029 63.174171
388.82004 113.14749 62.874039
391.2597 113.21328 63.211113
393.19376 113.23157 63.246452
395.26523 113.11449 62.696472
396.91849 113.08162 62.434925
398.92746 113.21982 62.974777
401.17606 113.19173 62.81855
403.10489 113.3003 63.194736
405.1412 113.31437 63.200848
406.90393 113.34715 63.280918
408.65717 113.18103 62.70998
411.17361 113.2193 62.839146
413.11584 113.36352 63.158371
414.77011 113.17018 62.584251
416.25037 113.34969 62.871723
419.52356 113.5932 63.153156
421.23633 113.37016 63.111435
423.05347 113.40889 63.149376
425.19043 113.42415 63.138714
427.19586 113.32279 62.873787
428.89575 113.43294 63.091633
430.9472 113.34219 62.845871
432.9841 113.47026 63.171547
435.00372 113.40664 62.975708
437.3064 113.55668 63.341675
438.51074 113.38747 62.818775
441.3078 113.4832 62.982483
442.76364 113.52896 63.126991
445.29968 113.40705 62.821102
447.05084 113.44944 62.865437
448.94736 113.46812 62.885326
451.43268 113.56783 63.007446
453.33688 113.59687 63.133595
455.59045 113.41484 62.675877
456.78302 113.64024 63.088692
459.02927 113.63172 63.076572
460.94943 113.53881 62.847778
463.27737 113.52408 62.810043
465.27576 113.66448 63.064976
467.46442 113.64813 63.029716
468.94928 113.35521 62.380116
471.01178 113.58086 62.81871
473.04272 113.48357 62.576561
475.13651 113.54597 62.643284
477.64041 113.50271 62.562927
478.86002 113.67494 62.828094
481.27121 113.58018 62.643429
482.79944 113.72537 62.898556
484.87183 113.65301 62.718201
486.93442 113.543 62.508236
488.60068 113.52897 62.45113
490.96259 113.65912 62.649364
492.83655 113.59263 62.492653
494.6167 113.58567 62.444397
496.82108 113.51344 62.284626
499.20483 113.74817 62.659782
501.38437 113.52805 62.242046
502.729 113.70639 62.552383
504.87036 113.72836 62.542374
507.25082 113.71448 62.485813
508.55347 113.64204 62.346252
510.84235 113.77543 62.526001
513.21594 113.60856 62.222996
515.43463 113.73969 62.41827
516.72418 113.69741 62.316833
519.08978 113.76431 62.38512
520.30817 113.70589 62.281971
522.56909 113.79959 62.388256
524.30103 113.79337 62.351295
526.10468 113.86923 62.430431
528.78467 113.65961 62.08025
531.13214 113.82099 62.280071
533.43719 113.87371 62.318024
534.97217 113.83524 62.238209
537.37573 113.84875 62.218552
538.2912 113.84633 62.200256
541.14038 113.77709 62.055206
542.88843 113.90475 62.209217
545.77301 113.85794 62.095623
41.128685 115.22662 63.388462
42.857464 114.87283 63.611687
45.082355 115.33665 63.244194
47.205105 115.09618 63.402946
48.896259 115.03339 63.397198
50.918232 114.71256 63.62431
52.809948 115.28126 63.179218
55.350384 115.09846 63.261848
57.542343 115.13428 63.19368
58.937542 115.1126 63.186672
60.872364 114.92498 63.293198
62.869602 115.14642 63.112469
65.30011 115.22166 63.011848
66.766403 115.03228 63.112537
68.847824 115.31322 62.888775
70.8116 114.87524 63.211452
72.728333 114.90604 63.171642
74.542046 114.79114 63.204113
76.932686 114.7401 63.244553
79.2827 114.75946 63.159016
81.119011 114.6012 63.263706
82.467537 114.87572 63.007538
84.81929 115.49312 62.509514
87.029633 114.78765 63.006836
89.123123 115.12801 62.745949
90.988739 114.88232 62.901859
92.783913 114.88483 62.796268
94.936615 115.25234 62.548546
96.9786 114.8128 62.849533
98.871078 114.92086 62.707775
100.75605 114.87256 62.666103
102.77005 114.69006 62.85247
104.6134 114.88425 62.639854
106.8417 114.60932 62.821457
108.90553 114.68961 62.732166
110.83298 114.86028 62.526508
112.73359 114.60084 62.733902
115.19043 114.88943 62.454285
116.89783 114.66178 62.608425
119.32423 114.76749 62.470837
121.20271 114.68896 62.517311
123.17793 114.62203 62.524158
124.18136 115.2214 63.027477
127.35468 114.96611 63.052944
129.6819 114.3919 62.631958
130.79771 114.63875 62.366997
132.61493 114.30812 62.683716
135.14995 114.34525 62.612019
136.56413 114.41434 62.499371
139.47766 114.52925 62.339184
141.11809 114.32684 62.537609
143.57341 114.39793 62.413811
145.25777 114.38075 62.396778
146.91237 114.45405 62.295666
149.09932 114.18222 62.539295
150.71898 114.24835 62.434669
153.62286 114.31119 62.324764
154.65366 114.23942 62.398838
156.69888 114.1939 62.392231
158.72275 114.11777 62.465408
160.41014 114.23278 62.314442
162.65068 114.45517 62.034492
165.98949 114.11853 62.339024
166.8251 114.21173 62.232105
168.41536 114.23277 62.168152
171.175 114.24359 62.117474
173.82175 114.21323 62.095467
175.04047 114.11839 62.198582
176.37752 114.07462 62.233425
179.01878 114.17878 62.05072
183.48236 114.09322 62.091747
185.73874 114.01427 62.167942
187.09946 114.05945 62.081375
188.76787 114.0835 62.019989
193.83495 114.02351 62.023582
248.38475 114.88519 63.322861
251.41194 115.19085 62.94371
416.33554 115.38351 63.492237
419.33551 115.06078 62.759785
449.49081 114.09289 63.991226
450.47803 114.09453 63.977585
455.44727 114.08454 63.882797
457.00876 114.09062 63.866184
459.01764 114.08643 63.827652
461.37131 114.1227 63.841324
464.61041 114.21246 63.894253
466.65915 114.17192 63.798031
469.60736 114.15865 63.758621
472.74304 114.07243 63.585258
474.88223 114.25051 63.751923
476.71637 114.27724 63.76741
478.99039 114.39706 63.850403
481.76489 114.20518 63.596027
483.03363 114.39255 63.78038
484.90631 114.3651 63.722584
487.06143 114.37779 63.700356
489.03149 114.3569 63.636433
491.11478 114.29025 63.531479
492.64148 114.3717 63.59515
494.98529 114.28468 63.465935
497.09335 114.1319 63.259052
498.71542 114.41404 63.527393
501.23859 114.19512 63.287952
502.62683 114.43518 63.489021
505.11011 114.51041 63.518032
507.61224 114.76314 63.752144
508.63394 114.34749 63.320522
510.63312 114.60095 63.52636
513.20654 114.54562 63.425468
514.61053 114.87026 63.696903
517.00946 114.82825 63.621784
519.02136 114.58507 63.370594
521.17163 114.77401 63.49482
522.80267 114.56232 63.260197
524.98254 114.78677 63.411381
527.11902 114.82207 63.45509
528.97552 115.065 63.615448
531.13177 114.41994 62.986725
532.93866 114.59212 63.129494
535.20868 114.58564 63.127224
536.73505 114.7149 63.17918
539.24176 114.91795 63.314537
541.07867 115.07703 63.351826
543.00519 114.78212 63.112789
544.65643 114.9988 63.235512
546.62238 115.21288 62.665367
40.707008 116.74123 63.067814
42.823662 117.10461 62.600456
44.92836 117.08858 62.565208
47.040508 117.18631 62.508259
48.985054 116.8132 62.567993
50.909721 117.00328 62.482018
52.612583 117.07854 62.458855
54.862999 117.0502 62.414467
56.940815 117.0099 62.397854
59.290794 117.13189 62.337852
61.025757 117.45796 62.24865
63.123753 116.84557 62.322117
65.206238 117.3637 62.180161
67.213379 116.76245 62.256042
68.843132 117.06549 62.183887
71.169701 117.01298 62.156872
72.818336 116.85264 62.156933
75.022369 116.78867 62.122444
77.2528 116.49088 62.17186
78.929344 116.53069 62.125668
80.66478 116.66752 62.054863
82.82695 116.35117 62.116306
85.198036 116.34631 62.07645
88.17514 116.10151 62.119953
90.74633 116.02909 62.109333
93.943291 116.07814 62.036179
124.21568 116.69106 63.096275
127.21569 117.03269 62.995216
247.96933 116.29761 62.014206
248.30254 116.94769 63.063835
251.48462 117.05783 63.172623
416.33548 117.01562 63.067688
419.33551 117.03329 63.090012
546.67731 116.95343 63.478008
40.80167 119.09316 62.9771
43.044231 118.93336 62.613491
45.20647 118.98593 62.589821
46.541939 118.85699 62.530022
48.958302 118.84142 62.477444
51.065887 119.11221 62.513611
53.113384 119.1321 62.490894
54.917126 119.29594 62.48661
57.405537 119.0517 62.380924
58.953224 119.07465 62.367714
61.072468 118.65348 62.274658
62.960114 118.95067 62.267323
64.96096 119.06433 62.256397
66.75985 118.9505 62.196209
68.898819 119.04507 62.202579
71.155487 118.9275 62.151958
73.278152 118.77991 62.061031
74.780174 119.47579 62.195686
77.196503 119.43098 62.146263
78.629166 119.67112 62.188953
82.463135 119.45248 62.055519
85.417885 119.88194 62.157772
86.823601 119.88725 62.137623
88.503288 119.80196 62.079262
93.318924 119.91032 62.041515
94.602936 119.98106 62.050533
124.21568 118.70746 62.790779
127.21568 119.06115 63.415161
248.23592 119.06003 62.853928
251.55008 118.85331 63.378834
416.33551 119.01601 62.980995
419.33554 119.12619 63.184311
541.22168 119.97373 63.977451
546.67041 119.14068 63.058498
41.262539 120.66936 63.325397
43.28434 120.82952 63.382542
44.652134 121.33018 63.73365
47.271172 120.70429 63.235359
48.746429 120.80654 63.307575
50.992962 120.67139 63.174698
53.11692 120.53645 63.033257
54.746857 120.81424 63.195663
57.058693 120.99644 63.291412
58.749023 121.07108 63.325329
61.07748 120.8153 63.135117
63.232014 120.81735 63.077564
65.192215 120.71635 63.007751
66.83213 120.9582 63.122089
69.055069 121.18376 63.27742
71.423302 120.82449 62.970894
72.843842 121.09386 63.165276
74.810211 120.88086 62.912323
77.034096 121.00872 62.978294
78.936119 121.03339 62.968739
81.048714 121.32024 63.182198
82.699959 121.11332 63.015503
85.198418 121.00458 62.859303
87.181725 121.33011 63.079144
89.255981 121.09119 62.890308
90.892174 121.38231 63.093132
93.210762 121.1866 62.865688
95.228294 121.1861 62.832779
96.793419 121.36093 62.972595
99.338295 120.92618 62.523121
100.90096 121.09878 62.701118
102.98103 121.14612 62.694561
104.97659 121.08186 62.598213
106.86794 120.96373 62.447998
108.51215 121.0671 62.541946
111.11555 121.23467 62.601048
113.21337 121.50366 62.825661
114.99582 121.39949 62.694931
117.0814 121.41117 62.653442
119.02697 121.11293 62.358467
120.96073 121.4637 62.650677
122.84143 121.42224 62.57859
124.15989 120.98013 62.629017
127.31532 120.92771 62.854958
128.4044 121.68455 62.741219
130.79489 121.57218 62.59549
133.19583 121.72825 62.712349
135.13242 121.56936 62.511627
137.40099 121.54729 62.450123
139.19226 121.725 62.594772
140.65442 121.33485 62.180893
142.85156 121.57353 62.392632
144.55586 121.63665 62.432503
147.08807 121.56406 62.305885
148.96991 121.65561 62.371334
150.85887 121.42831 62.109016
153.29463 121.8079 62.482658
155.26546 121.95963 62.624405
156.79918 121.85513 62.472343
158.75342 121.64887 62.201691
162.8089 121.71021 62.201794
166.65169 121.91178 62.371593
169.54031 121.77393 62.151993
171.7635 121.80624 62.171341
172.84511 121.87201 62.216751
174.50163 121.94285 62.288769
176.42365 121.86952 62.152889
181.74414 121.97366 62.215424
182.73392 121.87457 62.057861
184.65222 121.87954 62.033878
186.30939 121.89609 62.030655
188.50104 121.91191 62.01775
248.38315 121.11858 63.317768
251.38995 120.85733 62.874516
416.33548 121.09511 63.276035
419.33551 120.82025 62.871243
446.95221 121.93994 63.985474
452.27643 121.97379 63.850876
459.51358 121.92869 63.798023
460.68481 121.98631 63.696747
463.41339 121.71842 63.987289
464.63162 121.80231 63.879375
469.63828 121.90273 63.66806
473.08887 121.79265 63.744102
475.07233 121.92552 63.550446
477.24335 121.77188 63.709743
479.168 121.46729 63.983189
480.75494 121.65144 63.773308
483.24805 121.66501 63.71933
485.23746 121.61594 63.736183
486.95908 121.65113 63.672302
488.87677 121.72427 63.546131
491.27997 121.78181 63.464844
493.01361 121.62859 63.592094
495.01581 121.63657 63.545883
497.12488 121.53555 63.608292
498.46643 121.64751 63.486607
500.87344 121.60686 63.480877
502.81412 121.60571 63.442482
505.28564 121.33828 63.685303
506.84027 121.58147 63.390053
508.59329 121.54112 63.415878
510.84766 121.44255 63.488243
513.06616 121.40733 63.46706
515.20276 121.26927 63.548054
516.84363 121.24886 63.54528
519.1145 121.37129 63.40313
521.07465 121.31248 63.427475
523.07684 121.11177 63.576332
525.46509 121.21715 63.430061
527.22449 121.59131 63.059883
528.86865 121.28056 63.294018
531.13037 121.04968 63.449863
532.52277 121.29458 63.178699
534.62976 121.12088 63.360535
536.85016 121.28674 63.14975
538.95239 121.02226 63.330315
541.04504 120.80936 63.465794
543.00372 121.00913 63.262978
545.03326 121.01798 63.232704
546.54535 121.02068 62.74691
81.271332 122.94774 63.117847
82.967789 122.95074 63.186871
90.974564 122.94516 63.120117
93.014534 122.93964 63.121986
94.928635 122.88142 63.219646
97.03743 122.91546 63.026775
102.82104 122.87798 63.06916
105.03606 122.84019 62.907185
107.01485 122.97053 62.979004
108.95643 122.88612 63.098606
111.13068 122.95805 63.142651
113.1061 122.9027 63.151337
114.92552 122.77282 63.03912
116.91467 122.94855 63.133194
119.0246 122.80085 63.175705
120.93498 122.81712 63.010151
122.9473 122.80894 63.288597
125.00632 122.93352 62.873154
127.03529 122.90421 63.039223
128.78331 122.89017 62.786758
130.74963 122.78872 63.216221
133.00742 122.88852 62.985703
134.89984 122.96471 63.046036
137.00851 122.76184 63.115173
139.17615 122.894 63.069714
140.98064 122.82111 63.057976
143.10872 122.88299 63.22892
144.80661 122.81605 63.057804
146.79152 122.78758 63.222378
149.27757 122.9372 62.824265
150.95779 122.78585 63.223549
152.97128 122.70308 63.115234
154.92537 122.79874 62.977612
156.88275 122.8945 63.144707
158.81985 122.82619 63.250164
160.6895 122.93362 63.109493
163.07591 122.87331 63.088032
164.99681 122.71564 63.001049
167.01376 122.9269 62.778454
169.09882 122.79282 63.040688
171.04523 122.79448 63.028599
172.9259 122.80334 63.135849
174.94832 122.85763 63.064236
177.11295 122.84527 63.270874
178.88864 122.88644 62.891449
181.13387 122.84406 62.917347
182.98627 122.74611 63.216988
184.9892 122.75677 62.982754
186.99097 122.76435 63.211182
188.87807 122.82711 62.682861
191.07074 122.82382 63.18095
193.04239 122.84242 63.041878
195.10701 122.73723 62.782326
197.08127 122.79723 62.648598
199.07005 122.85664 62.90226
200.9938 122.90295 62.930752
203.02844 122.8316 62.965759
204.98373 122.93701 63.108513
207.00786 122.9454 62.98127
209.04805 122.85867 62.984478
211.14182 122.86986 62.998756
213.08298 122.8814 63.080891
214.76936 122.82941 62.840218
216.98947 122.83853 62.877197
219.36894 122.94414 62.96125
221.07451 122.87215 62.82803
223.16187 122.92322 62.918098
225.00948 122.88963 63.075924
227.15968 122.91086 63.044914
228.91275 122.94968 63.225266
231.14348 122.8631 62.921478
233.03735 122.91129 63.027084
235.02365 122.92656 62.971085
237.12401 122.9591 63.027927
238.96895 122.94935 62.784809
240.82983 122.91725 62.904381
243.25743 122.93077 62.97884
245.04933 122.92065 62.972401
246.93781 122.95609 63.121109
248.97067 122.92444 63.030651
251.19879 122.86703 62.930759
253.08371 122.93344 63.043365
255.00504 122.92738 62.942825
256.90271 122.92614 62.883701
259.12839 122.94946 62.925362
260.97873 122.92927 62.894302
263.04169 122.95792 62.991585
264.8941 122.95252 62.92049
266.90427 122.9796 63.027023
269.19092 122.94101 62.883263
270.89267 122.94204 62.84734
273.24353 122.9637 62.911636
274.83401 122.96531 63.02879
277.15372 122.95164 63.095772
279.13861 122.96596 62.977974
282.93652 122.95728 62.974586
284.79739 122.96136 62.876881
289.00452 122.97768 63.105103
295.11588 122.97119 62.923889
297.01443 122.97593 63.018692
298.87607 122.97958 62.918324
301.01294 122.97935 62.988201
302.92981 122.97792 62.839943
324.88712 122.97895 62.950947
335.26724 122.97088 63.265591
343.10889 122.97401 62.99345
344.91992 122.97186 63.106133
351.09277 122.96472 63.027615
352.95511 122.96998 63.155285
355.05112 122.96753 62.912235
357.09576 122.97709 63.059006
360.81967 122.96198 62.973984
363.05969 122.96208 62.929615
365.08249 122.96115 62.988831
367.0061 122.9558 63.002365
372.99973 122.95356 63.106121
374.88626 122.94927 63.408798
377.05164 122.95196 63.166637
379.0694 122.9362 62.971661
381.06442 122.94611 63.018646
383.08817 122.94954 63.262028
384.70389 122.91376 63.133881
386.93231 122.94178 62.96965
389.01364 122.93383 62.952122
391.09888 122.87555 63.066166
393.05389 122.9242 63.254745
395.12253 122.94851 62.939472
397.03445 122.88256 63.195667
399.06805 122.91374 62.951557
400.73999 122.94453 62.770638
403.12042 122.94206 62.850441
405.12497 122.86789 63.034382
407.07324 122.93714 63.038227
409.12238 122.91656 62.937092
410.92377 122.90908 62.956959
413.04294 122.89248 62.914112
415.18329 122.86057 63.062519
416.87747 122.91884 62.868347
419.22833 122.82354 62.934895
420.93848 122.88057 62.884983
423.20175 122.94328 62.971916
424.98804 122.91351 62.870316
426.93988 122.85568 63.130436
429.03207 122.86383 63.093807
431.09628 122.82847 62.96537
433.11545 122.79522 62.955635
435.02509 122.77157 63.110229
436.92722 122.82384 63.150543
438.95084 122.82362 63.03302
441.19742 122.75842 62.905876
442.96399 122.91244 62.865177
444.77103 122.81615 63.10556
446.948 122.80849 63.065281
448.9744 122.87126 62.925159
450.93381 122.78359 63.023972
452.88129 122.89995 62.760506
454.91586 122.80499 63.0285
457.05618 122.85633 63.11797
458.93353 122.84299 62.923073
460.98169 122.86298 63.057247
463.01801 122.81635 63.031727
465.1015 122.8281 62.926636
466.91159 122.94537 63.007839
469.19913 122.85896 62.885712
470.90625 122.73541 62.926548
473.14395 122.82565 62.956989
474.8793 122.83701 63.05476
476.9082 122.85074 63.027649
479.02197 122.76746 62.796242
481.2814 122.93772 63.040905
483.04279 122.89491 62.988308
485.18875 122.83673 62.946609
486.95587 122.83692 63.036057
489.38141 122.73928 62.981373
491.08618 122.84947 62.882832
492.93384 122.88434 62.668205
494.82629 122.83833 62.799839
496.8172 122.77841 62.933514
499.43796 122.80987 62.791706
500.95001 122.80572 62.82888
502.85922 122.77589 62.856194
505.01505 122.77792 62.901436
506.98059 122.82001 62.752155
508.92618 122.77991 62.837746
511.00681 122.74553 62.76141
512.89221 122.72803 62.633694
514.84851 122.89842 62.99221
516.86548 122.93501 63.053852
519.09705 122.94139 63.035843
521.04254 122.97037 62.913406
523.01794 122.80205 62.970772
525.06958 122.80968 63.019192
526.90887 122.77084 63.020718
529.03546 122.8896 62.804974
531.02057 122.82352 62.980461
533.35272 122.83182 62.990734
534.86523 122.95984 62.850197
536.83575 122.93603 62.957962
543.25415 122.86636 62.633404
40.963722 113.72431 65.270454
42.96117 113.60104 65.180794
45.079651 113.57603 65.195801
46.491814 113.86939 64.631058
49.278248 113.42867 65.399063
51.103477 113.56654 65.086784
52.906834 113.50183 65.241051
55.27676 113.47794 65.199265
56.806999 113.51453 65.132507
59.103882 113.4752 65.196182
61.022953 113.64873 64.785957
63.051731 113.64675 64.782234
65.373207 113.34371 65.398621
66.939331 113.27649 65.53231
69.323853 113.56482 64.817307
71.055321 113.64797 64.591148
72.819496 113.44128 65.007179
75.072517 113.55106 64.735909
77.031006 113.47577 64.93486
78.94072 113.3826 65.050613
81.044907 113.27297 65.310493
83.080772 113.41212 64.959267
84.891693 113.32448 65.150101
86.567291 113.41428 64.92392
89.146652 113.31577 65.169151
90.848854 113.25722 65.234833
92.48185 113.29058 65.105736
95.034546 113.37102 64.904366
96.556236 113.37704 64.842186
99.141083 113.30507 64.97287
101.01858 113.423 64.63546
103.09201 113.22449 65.209846
104.88549 113.30515 64.894264
106.83508 113.2403 65.040703
109.1646 113.30788 64.764366
111.29675 113.17903 65.209984
112.8195 113.18644 65.114922
115.32402 113.20837 65.033768
117.20187 113.15688 65.191483
118.794 113.1802 65.007179
120.94747 113.19984 64.911316
122.90904 113.16336 65.137695
124.18056 113.52411 64.703354
127.31948 113.40757 64.913658
129.1003 113.15157 65.055061
131.25346 113.12858 65.184578
133.0582 113.14543 64.982697
135.09627 113.14878 65.112114
136.75197 113.09924 65.209305
139.37018 113.17344 64.815529
140.88844 113.12236 65.037811
142.993 113.16849 64.773132
144.73483 113.15115 64.752289
146.7968 113.10634 64.931931
149.08524 113.06065 65.28257
151.24199 113.08559 65.185989
152.70071 113.18963 64.486198
155.11388 113.12113 64.753822
156.92374 113.12623 64.781609
159.25955 113.05307 65.251816
160.88116 113.07658 64.991493
162.96234 113.08466 64.89312
164.92496 113.07515 64.939331
167.43608 113.06763 65.073471
168.76279 113.06851 64.772408
170.8804 113.04541 65.184052
172.76932 113.04623 65.143005
175.08195 113.07761 64.808151
177.0887 113.07182 65.059288
178.68092 113.03412 65.377205
180.75768 113.05347 64.940002
183.35451 113.02532 65.155907
184.65125 113.05983 64.854294
186.95099 113.04171 64.994492
189.14484 113.03621 65.007622
190.8324 113.03709 65.252541
193.13452 113.03701 65.020927
194.91623 113.05288 64.570213
196.57437 113.03491 64.900948
198.94121 113.04372 65.199989
201.01552 113.05078 64.767708
203.17392 113.04084 64.791565
204.71581 113.06277 65.108192
207.05219 113.05445 65.25573
208.96233 113.03687 64.362328
211.37682 113.06228 65.163269
213.14229 113.05551 65.131325
215.45006 113.05359 65.103081
217.05643 113.05593 64.99826
218.93024 113.09552 65.430069
220.23236 113.03042 64.253563
223.02654 113.05878 64.965477
225.24753 113.09013 65.207176
226.81577 113.0947 65.268753
229.04042 113.06776 64.910294
230.76559 113.10526 65.20443
233.20271 113.13525 65.222672
235.27997 113.10138 65.042664
236.68117 113.07346 64.860832
238.93875 113.06313 64.776207
240.89906 113.08521 64.930962
243.4498 113.09153 64.910789
244.62932 113.05388 64.697723
247.12784 113.16644 65.184296
248.49425 113.10769 64.635498
251.83888 113.75373 64.288567
252.78793 113.32186 65.103775
255.60213 113.12139 64.872276
257.29001 113.17749 65.116257
259.10083 113.1744 65.046829
260.98611 113.18515 65.159859
263.24802 113.19096 65.149361
264.86279 113.23101 65.124306
267.10315 113.17832 64.992447
268.9512 113.19923 65.034744
270.45239 113.2943 65.336014
272.7276 113.26231 65.274147
274.87186 113.21274 64.98922
276.814 113.3883 65.521301
278.67062 113.14491 64.668533
281.05823 113.24823 65.038185
282.72452 113.16274 64.780998
285.18732 113.23042 64.959549
287.3584 113.12413 64.560257
288.77426 113.31574 65.087204
290.8674 113.30547 65.028854
293.3349 113.30058 64.958054
294.90515 113.30134 64.987679
296.58942 113.32352 64.970314
298.78128 113.24251 64.742111
301.02081 113.46922 65.30587
302.87381 113.24744 64.700142
305.38712 113.38336 65.016655
307.34418 113.38037 65.069252
309.14731 113.43845 65.019737
310.96854 113.38795 64.995628
313.12497 113.52509 65.195877
314.89157 113.42586 64.956406
316.85141 113.37381 64.83326
318.62628 113.47533 65.033073
321.08112 113.61062 65.241341
323.4762 113.65115 65.256821
325.13486 113.48833 65.012566
326.71582 113.53045 64.995918
328.83618 113.48834 64.854881
330.68716 113.4286 64.767296
332.73712 113.42442 64.664993
335.30276 113.52175 64.850983
336.86893 113.57806 64.954582
338.87433 113.65024 65.030037
341.30865 113.63628 64.994209
343.34708 113.43123 64.564095
345.4632 113.25182 64.096962
346.8497 113.64086 64.923477
348.98401 113.50294 64.619904
350.86404 113.58127 64.756844
352.76559 113.52892 64.618843
354.87085 113.62518 64.768311
356.51535 113.71364 64.913322
358.85562 113.49419 64.478386
361.11475 113.66802 64.784042
362.35684 113.63239 64.681274
364.81808 113.58287 64.535492
366.7988 113.60551 64.549698
369.28052 113.63067 64.561523
370.64963 113.67621 64.609398
372.97775 113.81583 64.835213
374.74133 113.62857 64.509583
376.85526 113.5713 64.352493
379.33322 113.69212 64.511795
381.17081 113.65655 64.429283
383.34232 113.78956 64.606705
385.13922 113.74145 64.509285
387.14447 113.73944 64.483131
389.41934 113.62331 64.260475
391.12262 113.71638 64.368561
393.07736 113.77534 64.441086
394.77954 113.91675 64.626099
396.72473 113.65334 64.187332
399.11224 113.77168 64.346825
400.96994 113.83785 64.400574
402.66394 113.89693 64.470055
404.62589 113.86328 64.390205
407.55408 113.8513 64.325668
409.12793 113.88134 64.343056
411.12256 113.79633 64.189186
413.93671 113.74419 64.069252
415.66592 113.88316 64.239731
416.33551 113.86886 64.000366
421.32129 113.82285 64.061951
423.44659 113.92885 64.178925
424.57791 113.9044 64.125664
426.26114 113.8604 64.035538
428.50635 113.88508 64.034424
40.863125 114.53523 64.579063
45.556396 114.14794 64.265068
46.783237 114.01219 64.422371
49.014297 114.08917 64.276268
51.297352 114.17912 64.131218
53.06332 114.21342 64.05188
54.54512 114.133 64.124046
59.592602 114.09374 64.098343
62.234993 114.03543 64.138824
70.789337 114.01821 64.024811
124.21568 114.72179 64.929443
127.21569 114.95289 64.563347
248.96106 114.8381 65.138222
251.95184 115.32345 64.644386
252.16696 115.03304 65.322006
320.62073 114.01141 65.962906
324.41919 114.00535 65.892708
329.40625 114.04478 65.868225
330.87323 114.0515 65.854034
335.78973 114.20752 65.981071
343.1456 114.21471 65.869072
345.60181 114.15686 65.746521
347.21521 114.05807 65.598648
349.35419 114.02289 65.513733
350.91064 114.42988 65.95845
353.31339 114.25809 65.735039
355.04724 114.29332 65.754868
357.20605 114.37 65.79657
359.0788 114.32195 65.707542
361.17377 114.21053 65.557159
363.21588 114.32447 65.639503
365.43884 114.23972 65.518921
366.50363 114.37138 65.647308
368.77084 114.1755 65.412193
370.23474 114.23737 65.44191
372.98828 114.62724 65.79705
375.19064 114.2434 65.355927
377.19876 114.19592 65.27372
378.96423 114.56191 65.608604
381.31808 114.2819 65.304649
383.04492 114.41824 65.413727
384.97421 114.44047 65.406273
386.83545 114.7052 65.620895
389.38385 114.74027 65.621971
390.85956 114.72661 65.580589
392.87656 114.69634 65.516083
395.16043 114.5275 65.311104
396.78024 114.30908 65.076874
399.00735 114.8921 65.574303
400.79865 114.90859 65.550964
402.45044 114.76198 65.377197
405.13354 114.90857 65.477882
407.66727 114.44509 65.041779
409.23593 114.7562 65.277245
411.30908 114.94806 65.402206
413.07028 114.71172 65.180191
415.06256 114.85997 65.280327
416.28967 114.97337 64.660507
419.48944 114.80164 64.983841
421.00223 114.45734 64.842873
423.10226 115.02756 65.268608
424.92981 115.09595 65.284645
426.80484 114.77958 65.025711
428.71237 114.82294 65.015274
430.93698 115.07169 65.154945
432.54025 114.7841 64.88707
434.86691 114.85471 64.984924
436.80627 114.84547 64.869591
438.5293 115.04406 65.011314
440.83804 115.10732 65.012428
443.09808 115.11086 65.025894
445.09131 114.66782 64.65464
446.61133 115.10739 64.979668
449.11893 114.92344 64.771904
451.27802 115.26022 64.987206
452.82275 114.86111 64.648003
455.07031 115.18222 64.883812
456.97794 114.98602 64.710434
459.24014 115.35118 64.909042
461.23764 115.17203 64.758202
463.19681 115.12971 64.726242
465.65137 115.14272 64.690331
466.51181 115.26421 64.747017
468.83643 114.90957 64.430344
471.19901 115.31801 64.713654
472.87161 114.94398 64.446548
475.24658 115.21542 64.593826
477.33679 115.17772 64.517975
478.99451 115.3259 64.599831
480.81378 115.39612 64.614792
482.74573 115.3653 64.543892
485.37143 115.23936 64.443192
486.78821 115.65958 64.657066
488.87851 115.28376 64.412407
491.34204 115.49825 64.519653
492.89658 115.34041 64.387802
494.51086 115.41203 64.40773
496.83463 115.39799 64.347168
498.4043 115.8031 64.573334
500.97125 115.25879 64.214645
503.34927 115.52669 64.337692
504.74188 115.30779 64.185173
