# .PCD v0.7 - Point Cloud Data file format
VERSION 0.7
FIELDS x y z
SIZE 4 4 4
TYPE F F F
COUNT 1 1 1
WIDTH 1614
HEIGHT 1
VIEWPOINT 0 0 0 1 0 0 0
POINTS 1614
DATA ascii
285.01816 113.3949 257.25201
286.68185 113.20951 256.81412
288.69226 113.21422 257.16547
291.04398 113.11518 256.99448
292.83286 113.07967 257.01434
294.74347 113.07699 257.30243
297.24246 113.02761 256.80774
299.11749 113.06106 256.99188
301.11435 113.04911 256.9465
302.73056 113.10658 256.86694
304.94772 113.08716 257.12039
306.9407 113.16431 257.09232
308.84454 113.23336 256.9397
310.64999 113.26354 257.09464
312.78906 113.39394 257.01431
314.9758 113.59814 256.82074
317.38925 113.70341 256.91547
318.93246 113.49762 257.46552
320.81451 113.6812 257.37268
322.86493 113.76373 257.48486
324.84647 113.80703 257.64236
327.17831 113.94637 257.68954
463.37256 113.91959 257.86072
465.97955 113.75114 257.63666
467.18887 113.61072 257.6171
469.21109 113.51825 257.37003
471.30872 113.53828 256.88431
473.08224 113.29998 257.08435
475.13803 113.13373 257.18127
476.63715 113.15444 256.77216
478.73816 113.03836 257.07547
481.3316 113.08638 257.10992
483.0336 113.10339 256.8544
484.89139 113.21961 256.83194
486.97363 113.54382 257.11923
488.98947 113.41715 256.17001
490.97913 113.83498 256.32199
131.50552 114.97871 257.63147
132.70328 115.17043 257.12839
135.08682 114.76668 256.62347
136.95686 114.43301 256.30896
157.38538 114.11942 257.71375
158.36682 114.26263 257.63928
161.04515 114.54054 257.36252
163.41417 114.95496 257.29117
165.27649 114.97198 256.99042
166.9762 115.16343 256.78687
169.11012 115.27511 256.50635
171.0265 115.4292 256.35706
172.01233 115.30531 256.1604
174.2287 115.82894 256.15463
253.05945 115.61868 256.12405
254.68387 115.60173 256.27786
257.21124 115.33138 256.39105
259.14984 115.16971 256.47
261.4024 115.0952 256.65396
263.45889 115.4004 257.08649
265.06116 114.80528 256.7767
267.0365 114.99419 257.13916
269.27838 115.11731 257.4985
271.10138 114.86839 257.56003
272.8457 114.39668 257.35455
275.57123 114.20167 257.4715
276.8468 114.2662 257.71506
279.83807 114.03758 257.80145
280.44348 114.07605 257.92505
316.7052 114.20152 256.09247
319.02304 114.29391 256.28659
321.13831 114.31711 256.53613
323.14838 114.6354 256.47754
325.25989 114.65206 256.71066
326.914 114.73287 256.87955
329.07916 114.98301 256.90192
330.81772 114.61523 257.38504
332.7532 115.39175 257.00174
334.73602 115.33193 257.26224
336.81372 115.46265 257.40854
338.2251 115.24028 257.68683
341.97415 115.90457 257.73318
342.81079 115.86465 257.83707
455.25168 115.69778 257.73795
456.86932 115.33276 257.71039
458.8685 115.30713 257.3688
460.93134 115.03839 257.2048
463.07388 114.71724 257.08496
465.28592 114.76519 256.61572
466.62878 114.38844 256.6691
469.45007 114.26776 256.12836
470.13837 114.23492 256.01028
489.09195 114.28802 257.55997
491.4899 114.6912 257.06744
493.16397 114.9127 256.72897
494.64771 115.28751 256.45837
131.17255 117.2207 256.93497
133.25681 116.59417 256.2074
165.44987 116.8494 257.83588
166.73578 117.09797 257.67722
169.26045 116.69022 257.12708
170.9422 117.28709 257.0097
172.7677 116.95017 256.6973
174.96825 116.98121 256.42429
176.80815 116.89819 256.15997
178.64861 117.52548 256.03229
245.34874 117.67629 256.04568
247.26801 116.88919 256.08905
248.85274 116.91204 256.20633
251.18513 117.59231 256.51749
253.08949 116.99294 256.6156
254.82297 116.69684 256.70956
256.64618 117.01943 256.94525
258.65762 117.15653 257.24652
260.84991 117.21255 257.46671
262.85712 116.9762 257.65796
264.88187 116.90358 257.84802
266.75168 116.65452 257.99698
268.4664 116.0444 257.97107
329.12302 116.23096 256.15396
330.54153 116.83997 256.13583
333.09741 116.84173 256.42719
334.85049 116.79582 256.64865
337.43295 117.20109 256.86993
339.12238 117.0827 257.06842
340.95969 117.16084 257.26404
343.04318 117.23867 257.48502
344.60312 117.03539 257.6662
346.86661 117.34595 257.80188
348.74149 117.2226 257.97876
449.93585 117.83562 257.93549
451.22412 116.98068 257.86652
453.33707 116.84398 257.60086
454.72449 117.15163 257.34668
457.06824 116.7386 257.08987
459.0636 116.92181 256.66376
461.42664 116.73197 256.2532
462.44034 116.32058 256.18933
493.34995 116.82746 257.69702
495.16351 116.76881 256.94131
496.9595 117.24171 256.392
131.12694 119.10276 257.18301
132.74469 119.05281 256.276
165.09978 119.37521 257.88669
167 118.92963 257.65158
168.69202 119.42538 257.20578
171.16939 118.78728 256.97549
173.06984 119.1775 256.62802
174.64011 118.9743 256.46118
177.09976 118.9653 256.15189
178.16002 118.16319 256.11969
245.5806 118.84511 256.005
247.25896 118.59515 256.14932
249.13455 119.147 256.20779
250.96053 118.76705 256.42679
253.11372 119.05088 256.58978
255.10527 119.08662 256.8118
256.99002 119.26209 256.95255
259.177 119.02717 257.24411
260.89746 119.02211 257.41473
262.84839 119.17487 257.58713
264.74805 118.91211 257.86411
266.69159 119.77634 257.84833
328.73828 119.6399 256.05585
331.03909 118.87679 256.14835
332.99472 118.97493 256.37503
334.8074 119.30499 256.68289
336.83191 118.89046 256.79312
338.63181 119.07389 257.0351
340.49039 119.04075 257.26285
342.99622 119.28812 257.57697
345.07413 118.76231 257.65024
346.84793 118.69222 257.81525
348.30621 118.79655 257.94336
449.87448 118.48215 257.96823
451.10922 119.02442 257.8902
452.92517 118.71427 257.57077
454.90445 119.1588 257.40057
457.04587 119.34373 257.08514
459.19226 118.703 256.56079
460.90665 119.07803 256.31046
493.2117 119.44158 257.65182
495.04788 118.88853 257.09259
496.74185 118.69849 256.48264
131.25331 120.68742 257.56863
133.20848 121.18604 257.25751
134.93364 120.95148 256.44583
136.72742 121.74762 256.59802
138.85063 121.95077 256.16159
156.73749 121.90131 257.8425
159.03229 121.78179 257.44794
161.23692 121.60928 257.20911
163.13586 121.0516 257.33157
164.89468 121.00248 257.05753
167.00322 120.96891 256.69873
169.0401 120.77193 256.50516
171.18684 120.61737 256.29886
173.27777 120.255 256.24155
174.24504 120.10248 256.18726
250.84749 120.03201 256.08167
253.20258 120.26872 256.19586
255.43536 120.46619 256.32837
256.98569 120.46507 256.47513
259.04764 120.77946 256.51035
260.8403 120.81636 256.62924
262.80273 121.0952 256.63974
265.21069 121.31229 256.6955
266.99283 120.96905 257.17981
269.20847 121.14812 257.27121
271.15442 121.18932 257.51993
273.1434 121.67753 257.2959
274.6886 121.44547 257.74643
276.95715 121.70987 257.75259
278.42416 121.87619 257.74063
314.39404 121.95708 256.00024
317.01819 121.87128 256.22214
318.68674 121.80257 256.34747
321.00165 121.58548 256.40894
322.85889 121.41657 256.49976
325.22437 121.21082 256.60382
326.95377 121.43144 257.01221
329.10571 120.74146 256.68213
331.26013 121.09919 257.21088
333.32434 120.86302 257.26889
334.73309 120.76535 257.31137
336.66425 120.72621 257.49768
338.59552 121.0397 257.93283
341.22919 120.25809 257.73904
455.31747 120.63132 257.91705
457.27426 120.43333 257.49796
458.85162 120.74948 257.44101
460.81717 120.64449 256.98306
462.89166 120.98685 256.82739
464.79907 121.15243 256.65881
467.16895 121.62211 256.53339
468.77765 121.65304 256.1911
470.26093 121.89287 256.14243
489.29761 121.74502 257.48651
491.05093 121.26374 257.34464
493.02316 120.94857 256.88
494.77454 120.66138 256.48889
136.97198 122.76093 257.20322
139.08424 122.76511 257.10052
141.03764 122.89173 256.96085
142.892 122.95417 257.06995
145.03368 122.97339 256.75305
150.94519 122.95498 257.06302
152.77403 122.92753 256.98102
154.94264 122.85307 257.10852
156.99736 122.86215 256.86615
158.88445 122.75326 256.98236
160.86609 122.81419 257.00461
163.01723 122.85881 256.83563
270.9559 122.81509 256.98578
273.00275 122.83281 256.68619
275.05582 122.78087 256.97635
276.90347 122.6966 256.97275
279.10687 122.84492 256.76028
281.02249 122.95808 257.04547
282.92322 122.7692 257.15131
285.0257 122.90458 257.05945
286.90601 122.91136 257.05313
288.99643 122.93921 256.95346
291.06967 122.94863 257.23584
293.20447 122.95857 257.05136
302.7449 122.97709 256.95718
304.97446 122.96471 257.00662
307.44791 122.92732 256.84406
308.98227 122.90036 256.93564
311.07214 122.75478 256.98718
312.98782 122.90308 257.02307
315.13602 122.89006 256.923
316.9704 122.82877 257.11838
319.12057 122.83517 257.10065
321.11917 122.87553 257.24884
323.02454 122.92277 257.07623
325.0831 122.83113 257.13177
326.85132 122.96731 257.24289
328.96976 122.90617 257.32834
462.93915 122.90851 257.22845
465.07425 122.87311 257.20532
467.02423 122.74781 257.04343
469.09003 122.95272 257.05545
471.01892 122.84823 257.07562
473.14984 122.84425 257.03897
475.00632 122.91868 257.08365
477.1188 122.95967 256.92502
482.90137 122.97411 256.87894
484.96326 122.93289 256.91049
486.78937 122.77628 256.93143
488.89709 122.83788 256.87698
490.79922 122.86752 257.06671
128.23865 113.9233 259.95547
131.61284 113.74393 259.6395
133.23228 113.48726 259.07513
135.21034 113.37599 258.61179
136.69244 113.1271 259.07843
138.78404 113.0571 258.9046
141.08786 113.06853 259.18759
142.85017 113.12747 259.06949
144.74513 113.20432 258.97464
147.3257 113.5376 259.1864
148.78435 113.61765 258.97125
151.02069 113.56062 258.30261
152.81366 113.8372 258.38318
154.04329 113.84421 258.11127
283.39838 113.89905 258.05334
285.202 113.97214 258.37982
286.99475 113.72477 258.21997
288.47638 113.80644 258.5242
291.16293 113.5062 258.32532
292.75266 113.55962 258.62756
295.26889 113.58241 258.91232
296.96393 113.57191 259.12796
299.13596 113.51266 259.31113
301.35968 113.24717 258.8764
302.815 113.25164 259.01453
305.52994 113.06377 258.64697
306.91141 113.15693 259.18832
309.07169 113.10798 259.1185
310.89389 113.05445 259.11621
312.96875 113.045 259.22433
315.24326 113.06411 258.64932
317.33401 113.07746 258.85815
319.18866 113.08159 259.0419
320.88043 113.10812 259.16025
322.7739 113.1683 259.02249
324.78571 113.1871 259.13049
326.82892 113.33634 258.90561
328.99405 113.40386 259.00949
331.18927 113.42719 259.1463
332.84613 113.64928 258.87192
335.12698 113.59438 259.20526
336.78329 113.79272 259.00977
338.63181 113.64658 259.48123
340.38782 113.65542 259.67557
342.69934 113.82625 259.61624
345.63159 113.78522 259.9552
346.14355 113.80132 259.97845
451.28122 113.91333 259.88541
453.1734 113.87138 259.67749
457.10205 113.55529 259.63272
458.60693 113.6297 259.2583
461.17435 113.58235 258.92474
463.15753 113.30811 259.18646
464.97659 113.31486 258.82907
467.47147 113.16518 258.94577
468.83609 113.07554 259.07669
471.04861 113.03926 259.01602
472.61591 113.04043 258.81622
475.03381 113.10377 259.06018
476.49496 113.17206 259.02823
478.94208 113.32293 258.91278
481.00705 113.55082 258.93027
482.65781 113.63731 258.65375
484.69516 113.78842 258.31873
125.85637 115.15167 259.59979
127.00793 115.09397 259.24033
128.14374 115.30585 259.17847
131.32013 114.94764 258.79709
147.98596 114.01208 259.85367
149.46002 114.17074 259.64581
151.3925 114.58745 259.6088
153.08806 114.64948 259.24216
154.76556 114.7308 258.91156
157.10182 115.1063 258.68488
159.3308 115.44926 258.44275
160.74203 115.5602 258.23587
271.37527 115.69012 258.15833
273.02029 115.40462 258.19449
275.02313 115.48831 258.4751
276.77802 115.23589 258.51294
279.12234 114.81425 258.50256
281.08234 115.0162 258.86594
282.95898 114.95699 259.07242
285.05319 114.99548 259.34271
286.91409 114.73742 259.37656
288.92184 114.36567 259.28848
290.91745 114.83043 259.99884
293.12378 114.43693 259.9071
294.98221 114.07637 259.72089
297.78687 114.00331 259.98203
331.63342 114.07662 258.02057
333.76849 114.10734 258.22491
335.00443 114.20963 258.24258
337.16321 114.41541 258.26898
338.74921 114.52554 258.34189
341.15469 114.53315 258.60977
343.32196 114.98576 258.48724
344.93195 114.6133 258.92078
347.03979 114.92541 258.88974
348.77374 115.06969 258.94266
351.37201 114.73164 259.45441
352.84137 115.31748 259.10645
355.11426 115.34571 259.30933
356.60373 115.20074 259.51456
358.90607 115.3774 259.63388
361.3237 115.60324 259.68628
363.28946 115.8162 259.70663
364.40405 115.6535 259.88254
366.54672 115.8863 259.9201
439.49097 115.7244 259.72357
440.91003 115.6462 259.61102
443.36887 115.31593 259.58322
444.96866 115.4325 259.33325
447.32355 114.9023 259.43347
449.20959 115.08508 259.03885
450.94336 114.63747 259.15494
452.85779 114.8384 258.71365
454.78345 114.37528 258.8353
457.16098 114.33147 258.50357
458.89349 114.31195 258.19324
481.89441 114.20016 259.74146
483.33694 114.28347 259.40161
485.00403 114.77884 259.3551
487.04892 114.92923 258.83362
489.00845 115.26566 258.4968
490.24371 115.57317 258.28879
123.48107 116.78551 259.74127
124.97988 116.85686 259.16049
127.03825 116.86426 258.43021
128.25397 117.06846 259.35541
131.26837 116.83105 258.8277
155.19579 116.37796 259.83325
157.01422 117.44867 259.6582
158.98625 116.74783 259.06021
161.4194 116.94949 258.62186
163.96004 116.55569 258.08118
164.80109 117.46556 258.10944
265.41055 117.60925 258.02313
267.24576 117.27358 258.14301
269.05658 116.4743 258.18997
270.74371 116.92677 258.49234
272.89145 116.57593 258.67294
275.14053 116.9857 259.06064
276.9501 116.88346 259.25125
279.14178 117.29684 259.61002
281.05615 117.23962 259.84467
282.54779 116.49701 259.87573
347.75525 116.34683 258.10898
348.86743 116.65877 258.12433
351.01868 117.14684 258.23175
353.21432 117.23454 258.41327
354.92236 116.90839 258.64124
356.83865 117.43762 258.71707
358.67078 116.68166 259.06339
361.159 116.90302 259.19022
362.67938 117.15393 259.26743
364.45972 116.58699 259.50668
367.75568 117.04364 259.66238
369.02057 117.09194 259.73987
370.60629 117.07287 259.85919
374.77829 117.9452 259.99753
429.50479 117.77593 259.99762
431.50388 117.29226 259.91724
432.88199 117.04269 259.87897
434.56412 117.16184 259.72943
436.92776 117.09654 259.54596
439.27316 117.2019 259.27286
441.13284 117.09373 259.11429
442.82034 116.96757 258.96109
444.68799 116.8907 258.7717
447.03311 116.95235 258.49454
448.95499 116.96279 258.22287
450.10645 116.09657 258.29135
487.37997 117.22316 259.79742
489.14133 116.74079 259.11099
491.22662 116.89844 258.43701
492.5864 117.5047 258.1008
123.38308 118.63312 259.64847
125.05058 118.93 259.07092
127.06586 119.2732 258.42728
128.26962 119.1142 259.39548
131.28722 118.67278 258.87598
155.23746 119.44252 259.8829
157.28581 119.20351 259.45071
158.85558 118.95894 259.13385
160.54349 118.97495 258.79483
162.79599 118.22243 258.50635
164.88852 118.20968 258.12613
265.61078 118.23303 258.05634
267.117 118.63767 258.1683
269.27179 119.17113 258.30756
270.58945 118.83583 258.54807
273.16687 119.10375 258.78595
274.95999 118.96848 259.02844
277.22061 118.95123 259.34659
279.40805 118.91073 259.63254
280.67755 118.90464 259.76605
282.78918 119.7902 259.8056
284.22961 119.87164 259.94995
346.36044 119.9026 258.07224
349.45309 119.156 258.138
351.21155 119.71831 258.45526
352.80087 118.75018 258.39075
355.13242 119.26573 258.72516
357.15488 118.88167 258.81607
359.08139 118.58437 258.92703
361.19217 119.1613 259.21472
362.73233 118.97341 259.29599
365.43817 119.39384 259.58203
367.01019 118.72566 259.56326
369.34741 118.85676 259.73553
370.67767 118.7023 259.84583
374.52832 118.11468 259.98361
429.85165 118.2951 259.97971
431.25177 118.75958 259.92752
433.19751 119.08432 259.8797
435.17169 119.20158 259.77228
437.10605 119.19173 259.58118
438.68213 119.17928 259.41916
441.10333 118.80013 259.09894
443.1839 118.5435 258.82916
445.10629 118.94939 258.71771
447.03568 119.05994 258.49045
448.44751 119.00868 258.2655
450.96515 119.88393 258.15729
485.93939 119.89053 259.9747
487.79739 119.28403 259.55414
488.9903 118.87999 259.2554
491.11334 118.91841 258.53082
492.09335 118.63107 258.24179
125.46793 120.65344 259.62646
126.97764 121.06763 259.39716
128.14799 121.48734 259.47141
131.31845 121.38642 258.86664
147.73512 121.97242 259.95676
149.94188 121.97703 259.32861
151.2457 121.45425 259.6011
153.01015 121.26373 259.31958
155.21188 121.00049 259.00354
156.87016 120.91502 258.74527
159.10326 120.50912 258.4931
161.06345 120.37006 258.20828
163.06255 120.01947 258.02954
271.74643 120.04828 258.33673
272.70181 120.32764 258.30777
275.57965 120.55167 258.5451
277.26968 120.96548 258.43225
279.17569 121.07223 258.57285
281.26987 120.88883 258.94888
283.35452 121.2925 258.91199
285.06259 121.05823 259.3548
286.68292 121.34184 259.2818
288.77863 121.39928 259.49902
290.85504 121.47011 259.71069
292.96494 121.66788 259.76639
294.97366 121.81805 259.85352
335.07037 121.78232 258.23657
337.43942 121.50509 258.20901
339.42276 121.68922 258.6449
341.00439 121.50618 258.6459
342.91559 121.07242 258.48792
345.05945 121.29425 258.85617
346.95895 120.9938 258.83142
348.99789 120.644 258.74677
350.73193 120.76625 258.97586
352.63773 120.76582 259.15945
354.73676 121.06873 259.5506
356.90942 120.67041 259.46121
358.72534 120.54958 259.5799
360.92297 120.45974 259.68286
362.83554 120.37854 259.7789
365.10779 120.40039 259.95016
436.88477 120.09422 259.90738
439.16415 120.25562 259.74133
440.85315 120.41815 259.65842
442.93417 120.80775 259.68817
445.14984 120.67893 259.36993
447.76025 120.90926 259.2366
449.05698 120.80284 259.0137
451.04068 120.98213 258.82602
453.02328 121.12418 258.66434
454.98871 121.43939 258.63177
457.61166 121.6939 258.45642
458.8013 121.69846 258.2258
460.5874 121.89743 258.13562
481.74466 121.80054 259.7822
483.25064 121.63243 259.51978
485.07718 121.44186 259.17383
486.98898 120.93899 258.9697
489.01797 120.72079 258.48807
490.80438 120.36089 258.12857
130.9341 122.95323 259.18762
132.95143 122.84253 258.97617
134.98212 122.92577 259.01358
136.91847 122.94717 258.94559
140.85229 122.97729 259.00403
142.97746 122.96027 259.10773
144.87964 122.9668 258.97287
147.00421 122.89933 258.92618
149.1284 122.73411 258.83984
150.9126 122.82887 258.84869
152.88216 122.92432 258.95029
154.97209 122.94891 258.86945
284.97409 122.8595 258.86322
287.07233 122.79885 258.78357
289.26056 122.86798 259.02145
291.03986 122.92751 259.10699
293.15616 122.76833 259.02988
294.92273 122.77589 259.07007
297.27542 122.89302 258.93677
299.12906 122.86016 258.95441
301.04004 122.80388 259.04263
302.96548 122.93015 259.05759
305.01102 122.92375 259.25055
307.15955 122.96021 258.86667
309.11948 122.96945 258.97797
311.08102 122.97806 258.92419
316.96912 122.97317 259.03833
318.95126 122.97643 259.1351
320.9566 122.93575 258.79224
322.94946 122.92844 258.9379
324.94897 122.9166 258.86655
327.08353 122.92344 259.04965
329.03442 122.86264 258.80966
331.08075 122.78687 258.90955
333.1618 122.85988 259.06726
334.92499 122.87494 259.0408
336.98239 122.8108 259.21341
338.86676 122.90145 259.08386
341.07718 122.97321 258.98663
343.0968 122.96092 258.98346
344.92368 122.81277 259.26624
346.91266 122.94114 259.02557
451.17413 122.91154 259.23749
453.03519 122.93876 258.93729
455.194 122.78611 259.08606
456.91562 122.8394 259.12726
459.02982 122.84922 259.30136
461.07474 122.77976 258.83249
463.1821 122.89554 258.89075
464.8002 122.90092 259.11563
467.0657 122.94927 258.73615
468.95883 122.97852 259.01419
471.00311 122.9741 258.90338
472.92694 122.97065 259.01019
475.01373 122.97342 259.16354
476.9642 122.93265 259.20224
479.27386 122.87315 258.98636
481.0921 122.815 258.948
482.84702 122.84451 258.99387
485.00015 122.87871 259.10211
123.6313 113.86108 261.86359
125.40921 113.61964 261.61185
126.8466 113.61235 261.12805
128.75021 113.45999 261.15652
131.8725 113.7844 260.37576
132.55074 113.31944 261.21652
135.10683 113.07153 261.00922
137.28506 113.15572 260.97177
138.81656 113.36333 261.18152
141.02077 113.55465 260.97726
142.56311 113.53706 260.52765
144.65273 113.77713 260.43961
146.58026 113.95689 260.17783
300.82257 113.92979 260.27173
303.6564 113.75687 260.35623
306.35742 113.52688 260.28589
309.25754 113.40071 260.35715
310.97815 113.50802 260.7811
312.89194 113.43839 260.84454
315.25684 113.43228 261.06396
316.82126 113.41319 261.24707
319.17709 113.18229 260.85272
320.94846 113.17051 261.03787
323.45288 113.12152 261.17126
324.85846 113.10617 261.2598
327.00919 113.07936 261.37421
328.99182 113.03246 260.60654
331.16306 113.03097 260.85098
332.98129 113.03244 261.12189
334.67279 113.04421 261.21539
336.90985 113.05555 261.24988
339.00391 113.16519 260.82037
341.06558 113.1834 260.98373
343.18277 113.11648 261.46509
345.23868 113.37345 260.77151
347.17108 113.447 260.78595
349.07642 113.45227 260.99185
351.22046 113.57457 260.89523
352.99182 113.5978 261.0463
355.17599 113.57229 261.26602
357.5878 113.59809 261.42603
358.95505 113.73506 261.28073
360.64185 113.68855 261.52295
362.97168 113.61359 261.80176
364.73917 113.74811 261.69199
367.12961 113.99879 261.48883
369.42029 113.86195 261.85553
370.26645 113.92451 261.82483
430.46365 113.96317 261.97833
433.84738 113.84705 261.91702
434.6611 113.96243 261.68375
436.87451 113.78288 261.7814
439.22751 113.77991 261.54587
440.80157 113.76196 261.42178
442.95184 113.65233 261.37119
445.22437 113.46942 261.48477
447.08569 113.57778 261.08755
448.66928 113.66525 260.69547
451.129 113.27486 261.25385
452.79337 113.2876 260.94586
455.13101 113.15754 261.14612
457.13525 113.15216 260.94058
459.17258 113.07141 261.02167
461.04706 113.05147 260.85165
462.81683 113.0573 261.01767
464.89111 113.04628 261.02597
467.13922 113.16411 261.146
468.76044 113.23711 261.10626
471.15912 113.26389 260.57846
472.80151 113.5396 261.04245
475.01639 113.57258 260.61618
477.07764 113.72447 260.36331
478.74878 113.88905 260.19507
119.54535 115.7843 261.71707
121.30668 115.00401 261.54321
123.09169 115.00762 260.84824
124.76586 114.45984 260.67767
128.90996 114.69897 261.03638
131.91051 114.24728 260.47311
132.30353 115.19491 261.48022
140.83395 114.05175 261.92899
143.26723 114.33278 261.57367
145.26559 114.83001 261.45447
146.95981 114.84789 260.98505
148.7094 114.93247 260.58734
151.1954 115.48784 260.34485
287.12335 115.77838 260.14575
289.53036 115.47611 260.27631
290.79553 115.64557 260.53101
293.48087 115.08633 260.48599
295.45715 115.00435 260.65314
297.25031 115.18469 261.00195
299.44647 114.87189 261.02625
300.82031 114.83577 261.17453
302.91882 114.73204 261.36304
304.73639 114.64526 261.54083
306.81192 114.42417 261.60632
309.4173 114.2367 261.7428
311.22595 114.17734 261.90002
313.19699 114.01157 261.93793
353.31543 114.04488 260.29376
355.03894 114.20953 260.26477
357.04111 114.30981 260.32877
359.38568 114.50823 260.34766
361.17676 114.41372 260.59909
362.76025 114.74226 260.40363
364.55283 114.45759 260.78723
366.74191 115.00564 260.49768
369.25729 115.16664 260.59354
370.78583 115.02163 261.19766
373.94156 114.72292 261.76102
375.33575 114.98299 261.13885
376.87476 114.81056 261.31866
379.04886 115.21999 261.12601
381.18048 114.78355 261.53159
383.13052 115.47139 261.12796
385.22565 115.01324 261.52081
387.11014 115.29038 261.39136
389.07816 115.12373 261.54272
390.74881 115.37235 261.44211
393.2012 115.45908 261.41992
395.00369 115.47143 261.4545
397.5061 115.53294 261.45566
398.74371 115.21073 261.69193
401.18588 115.55222 261.49265
402.95126 115.12569 261.75073
404.90906 115.44209 261.5549
406.7438 115.12559 261.72922
408.7825 115.26962 261.63318
411.07941 115.4804 261.47787
413.05228 115.43247 261.4826
415.07605 115.45315 261.39865
416.91 115.16793 261.52945
418.52487 115.12113 261.52383
420.57889 115.27213 261.32401
423.37024 115.39878 261.14062
425.17584 115.03522 261.31403
427.17902 114.76329 261.41605
429.34991 114.91856 261.14288
430.92676 115.05358 260.914
433.27853 115.06771 260.79175
434.74573 114.82162 260.82205
436.69962 114.79892 260.69104
438.59827 114.6183 260.62405
441.26199 114.43586 260.51257
443.33682 114.4185 260.30194
444.65863 114.36398 260.2052
446.15854 114.30521 260.1037
448.63803 114.02452 260.1051
474.9075 114.21893 261.60602
476.85193 114.27885 261.20743
479.32306 114.89102 261.10535
480.64444 114.93995 260.80026
483.01569 115.42208 260.47232
484.50668 115.4698 260.08377
117.67501 117.6455 261.97372
119.08007 116.93496 261.50916
121.15427 117.1074 260.60864
122.20255 117.39783 260.09177
128.8766 117.05064 260.95084
131.76367 116.3108 260.09686
132.17976 116.9353 261.16312
147.59795 116.61444 261.80948
148.93384 116.91232 261.49213
151.27519 117.02531 260.90802
153.22908 116.95493 260.43002
154.86308 116.93097 260.04785
281.86041 117.77639 260.01883
283.05862 117.0246 260.0751
284.88458 117.09512 260.28665
287.08353 117.00893 260.54691
289.12103 117.20302 260.8158
290.78922 116.7663 260.92453
292.64368 116.67381 261.15302
295.06485 117.18675 261.54944
296.93378 116.96696 261.75226
298.96506 116.65784 261.95749
300.28381 116.17499 261.97147
371.06638 116.83141 260.86908
373.9473 117.12329 261.70657
374.89902 116.91122 260.27109
377.18909 116.8705 260.29083
379.06772 117.09357 260.36969
381.11487 116.99139 260.45227
382.81277 117.04162 260.51071
384.31384 116.89452 260.6077
386.88632 116.96097 260.6853
389.05759 117.16866 260.70309
391.08484 117.05351 260.77487
393.16159 116.99627 260.86438
395.07407 116.67658 260.95935
397.17044 117.09644 260.91162
398.91602 116.99518 260.95966
400.64545 116.42995 261.12833
402.75705 117.2822 260.92584
404.66782 116.8079 260.99347
407.04419 117.10093 260.91766
408.77533 117.20246 260.9003
411.26578 116.90494 260.91843
412.94891 117.26266 260.85553
414.92688 116.72588 260.88452
416.85428 117.03014 260.72345
419.03223 117.325 260.62811
420.81641 117.22351 260.56253
422.84247 116.71912 260.59009
424.81354 117.24668 260.38757
427.17188 116.67114 260.36307
428.81625 116.99824 260.19083
430.39001 116.97758 260.03287
432.46558 116.11627 260.15518
479.43121 116.28114 261.94452
481.39078 117.12548 261.61234
482.38965 116.97611 261.28189
485.00284 116.89388 260.51617
486.5629 116.79116 260.01593
117.91189 118.48759 261.89404
119.01965 119.19729 261.56403
121.07929 119.04163 260.68161
122.14037 119.3068 260.31781
128.96353 118.96184 261.17368
131.89914 119.33447 260.44403
132.25732 118.84745 261.36188
147.72075 119.13348 261.82745
149.02255 119.05552 261.48734
151.30771 119.02916 260.88904
152.75186 118.50681 260.63547
154.3472 118.86253 260.2356
283.14917 118.84074 260.10043
285.1622 118.8233 260.33075
286.69162 119.14565 260.45343
288.97186 119.16897 260.7048
291.01401 118.9503 261.02734
292.83578 119.16038 261.23468
294.88535 118.94407 261.5174
296.92297 118.93234 261.80383
298.62952 119.64956 261.82608
300.18134 119.86781 261.93674
370.92178 119.26054 260.79117
373.90631 118.9911 261.85339
374.61539 119.14629 260.54391
377.10632 119.04279 260.27155
379.05557 118.9076 260.33978
380.91968 119.31033 260.54379
383.07715 118.95567 260.52185
384.95642 119.158 260.65659
387.01617 118.95409 260.689
388.7063 119.18573 260.77695
391.18533 119.01123 260.79807
392.92017 118.86121 260.78906
394.92612 119.25966 260.94601
396.64691 119.02068 260.93265
398.88675 118.76151 260.91
401.1055 119.08686 260.99435
402.93774 118.93269 260.97052
404.75146 118.86347 260.94635
407.0611 119.00902 260.93326
409.09418 119.13794 260.96082
411.35818 119.09536 260.93686
413.13147 118.98093 260.87488
414.85474 118.92688 260.81979
417.07788 118.64715 260.67676
418.89749 119.31962 260.76758
420.97729 119.49121 260.71072
423.08884 118.82199 260.47971
424.98431 118.89574 260.41129
427.00592 119.06647 260.32291
429.20703 119.26273 260.21011
431.96768 119.63427 260.09366
479.6152 119.8085 261.85501
481.33221 118.67074 261.67245
482.89166 118.85997 261.17285
485.27707 119.19374 260.39764
486.4371 118.91396 260.11227
121.14201 120.93917 261.56015
122.70084 120.88079 260.86234
124.89896 121.49349 260.55667
127.00819 121.94034 260.24881
128.64983 121.40135 260.36978
131.89998 121.33837 260.44614
132.3165 121.07973 261.51352
141.31972 121.87173 261.88998
143.17732 121.52425 261.74225
145.58572 121.08675 261.45148
147.03296 121.0763 261.01056
149.09604 120.88325 260.61188
151.09509 120.33082 260.47501
152.40883 120.21259 260.24222
287.24301 120.35224 260.09262
289.09396 120.59171 260.17776
290.73383 120.57487 260.38464
292.94891 120.72617 260.54413
294.91684 120.75684 260.75235
296.84848 121.2178 260.6489
298.9859 121.12187 260.96625
300.94186 121.08909 261.27957
302.93344 121.19115 261.45596
304.76367 121.50133 261.4075
307.29398 121.65903 261.57028
308.70029 121.63868 261.77878
351.30783 121.93707 260.09323
353.18771 121.87871 260.19492
355.22095 121.74118 260.21375
357.02115 121.70672 260.35312
358.92288 121.42875 260.2435
361.22076 121.38737 260.3963
363.12851 121.49268 260.64856
365.26831 121.42389 260.76486
366.85779 121.57259 261.00601
369.11823 120.54564 260.34024
370.82919 120.76205 261.19168
373.90646 120.59807 261.85281
374.57697 121.07574 261.20163
376.80777 120.79372 261.05103
378.94589 121.04066 261.30774
380.91342 121.1382 261.46671
383.02692 120.71263 261.22864
384.79507 120.81689 261.40146
387.07385 120.95212 261.58008
389.03381 120.67818 261.42786
390.91812 120.45184 261.30835
392.7572 120.8871 261.63168
394.96735 120.44821 261.39163
397.0127 120.65013 261.57318
398.73621 120.88662 261.7702
401.40692 120.49963 261.5206
403.12451 120.88994 261.77722
405.18979 120.62836 261.58728
406.56055 120.64131 261.58707
409.32864 120.65208 261.58295
410.49924 120.75422 261.63794
412.99036 120.80199 261.64664
415.00455 120.61554 261.43228
417.02979 120.77374 261.48044
419.41046 120.87108 261.46567
421.24036 120.61864 261.24847
423.14911 120.87354 261.32657
425.10464 120.74789 261.14145
427.40073 120.89348 261.14529
429.06271 121.1147 261.18524
430.94806 120.96407 260.9404
432.78949 121.25097 260.98471
434.67502 120.82024 260.53348
437.29016 121.17976 260.58466
438.92264 121.68613 260.87622
441.46487 121.43651 260.3577
443.00717 121.47958 260.21762
445.05591 121.69369 260.22958
446.92691 121.91797 260.28976
474.87158 121.71835 261.69678
477.36041 121.35494 261.42892
478.78674 121.25293 261.12424
480.99979 121.0881 260.65463
483.24316 120.47684 260.47455
123.02721 122.93422 261.15561
124.88723 122.92394 260.97183
126.88982 122.80547 261.16589
128.83493 122.77888 260.91843
132.94287 122.96941 261.10153
137.09558 122.93224 261.11108
139.07118 122.89643 260.88193
140.81303 122.83215 260.88901
142.9135 122.77046 260.78696
145.19952 122.9024 260.90967
147.24596 122.95008 260.81198
299.09549 122.95823 260.86707
303.0274 122.84939 260.90366
305.06503 122.82004 261.0614
306.98499 122.75318 260.97174
309.18344 122.86792 261.02866
310.94263 122.89796 260.99893
313.04666 122.8341 260.98969
314.79468 122.83656 260.89258
316.91058 122.87257 260.96793
319.04395 122.90829 261.11298
321.09198 122.96513 260.87225
323.05252 122.97231 260.77499
326.81 122.95525 260.96332
335.02518 122.96815 260.99338
336.86996 122.97271 260.83633
339.02792 122.96706 261.19037
341.18918 122.91152 261.14304
342.98074 122.85351 260.82272
345.0257 122.88768 260.89499
346.71545 122.82571 260.91394
349.26953 122.9278 261.1156
351.00717 122.75359 260.84259
352.9212 122.81086 260.72437
354.88959 122.8073 260.98016
357.09454 122.84959 261.04498
359.07492 122.77145 261.34415
361.12857 122.80652 261.12189
362.97327 122.90479 261.16122
367.03821 122.83091 261.11484
368.85965 122.93278 261.15396
431.04999 122.94778 261.23056
433.0387 122.72643 261.40005
435.00931 122.85701 260.99033
436.98389 122.95483 261.19904
438.92126 122.78879 261.33353
441.14487 122.77395 261.26425
443.18939 122.81151 260.93915
444.9679 122.85906 261.36011
447.01874 122.88048 261.02606
449.29041 122.91187 261.18896
451.14542 122.854 260.9603
453.146 122.92791 261.12662
454.90231 122.89656 261.00186
457.0849 122.94439 261.05197
467.05716 122.96522 261.05603
469.26605 122.91586 261.16437
470.99481 122.86803 260.86667
473.00812 122.85492 260.99448
474.96844 122.7915 261.05634
477.27524 122.81634 260.90552
119.38401 113.8193 263.70096
121.10305 113.62501 263.37726
123.18483 113.44997 262.87924
125.1464 113.22215 262.79611
127.02556 113.06078 262.98071
129.347 113.29795 262.96405
132.98932 113.41795 262.85345
135.07147 113.50645 262.85287
136.991 113.75606 262.69781
138.30576 113.93303 262.58594
314.8519 113.92232 262.02502
317.71262 113.90462 262.36475
318.70465 113.77338 262.28366
320.72568 113.69051 262.39075
322.98923 113.52476 262.33902
325.36725 113.63391 262.81314
327.08954 113.4408 262.61008
329.04251 113.55859 263.08688
330.78772 113.55167 263.17621
333.17053 113.471 263.35818
334.9899 113.44289 263.49933
337.24155 113.19878 262.9697
339.23157 113.12389 262.87054
341.51923 113.11603 263.16879
342.94672 113.0652 262.82431
345.07486 113.01954 262.69196
346.95096 113.03834 263.0864
348.94519 113.0395 263.16916
351.09607 113.06223 262.92004
352.82767 113.06897 262.79645
355.16632 113.08055 263.01321
357.25415 113.06031 263.21478
358.82654 113.08953 263.08682
360.53351 113.13688 262.99399
362.81473 113.23595 262.80582
364.84442 113.20889 263.06012
366.81332 113.24615 263.09637
368.87988 113.36649 262.828
370.45032 113.53968 262.99496
373.61292 113.66215 263.29657
375.09088 113.59061 262.7308
377.28632 113.41675 263.28662
378.69025 113.47288 263.19794
381.10077 113.40938 263.4118
383.20248 113.61643 263.035
385.07529 113.62138 263.15814
386.97714 113.58865 263.23679
389.02216 113.70836 263.10287
390.89032 113.52567 263.43524
392.68341 113.58067 263.39621
394.64868 113.62801 263.32993
396.93881 113.75996 263.16718
398.37308 113.6182 263.45709
400.86041 113.58672 263.51105
403.18814 113.60638 263.49106
404.81885 113.60717 263.45706
407.27982 113.67908 263.33173
409.11783 113.71288 263.22836
411.21844 113.79172 263.09729
413.00006 113.66943 263.29401
414.77246 113.72716 263.13953
417.14175 113.52289 263.44452
418.62823 113.55437 263.32077
421.15787 113.57668 263.18167
423.16968 113.56997 263.10767
424.86295 113.47727 263.21033
426.91754 113.44235 263.21298
428.94781 113.57218 262.81067
431.01877 113.47739 262.89691
433.2547 113.23192 263.29913
435.10559 113.3271 262.93619
437.12494 113.20639 263.11783
439.10004 113.16222 263.12552
441.04486 113.18529 262.81345
443.07471 113.10787 263.05377
445.37082 113.06541 263.00607
447.1586 113.05782 262.71729
448.72226 113.06453 263.15631
450.90366 113.0192 262.75262
452.99988 113.06984 263.0477
455.14539 113.10626 263.07486
457.13202 113.18539 263.17892
459.26715 113.16213 262.66187
460.9903 113.37789 263.03815
462.91577 113.56895 263.14963
464.85132 113.56913 262.77817
467.09015 113.49695 262.28644
468.96024 113.67146 262.1864
470.88535 113.8652 262.08383
115.68744 115.37439 263.68054
117.07354 115.23023 263.18289
119.30671 114.88593 262.48587
121.05189 114.20817 262.41946
129.6571 114.78772 262.9509
132.9437 114.90617 263.12067
135.57455 114.16312 263.7926
137.47072 114.52612 263.56665
138.91512 114.59438 263.14334
141.15598 115.18749 262.90213
143.15749 115.54932 262.61099
145.26762 115.88144 262.1987
303.29974 115.87259 262.21704
304.91769 115.3836 262.14685
307.23096 115.44446 262.45648
309.24823 115.25862 262.55536
311.27448 115.16852 262.78247
313.03259 114.52651 262.48499
314.85428 114.87827 262.98541
316.73431 114.7253 263.10855
319.19836 114.65381 263.36575
321.16995 114.45576 263.44864
324.7977 114.3775 263.81885
327.01843 114.12439 263.77307
370.53308 114.96431 262.78003
373.63879 115.21075 262.81189
376.00693 114.01596 262.04544
379.98672 114.10543 262.14151
381.32346 114.1264 262.17517
385.10379 114.16759 262.2919
386.41296 114.21963 262.28903
389.55234 114.25346 262.31686
391.3129 114.32805 262.27777
393.20001 114.39325 262.24756
394.93616 114.38501 262.30588
396.69031 114.38333 262.36005
398.78662 114.47276 262.30798
401.29807 114.39285 262.39529
402.4877 114.27705 262.5264
405.01636 114.38389 262.38992
407.05695 114.56474 262.18274
408.96674 114.29187 262.45776
411.44855 114.29838 262.43073
412.34888 114.43369 262.29886
414.9686 114.42295 262.20889
416.78433 114.27346 262.29553
418.78601 114.17429 262.33786
421.73111 114.1872 262.21216
423.75711 114.01579 262.33923
425.17697 114.1736 262.0903
465.04062 114.23642 263.81589
467.16275 114.32526 263.49445
469.42331 114.72121 263.37704
470.8623 114.80917 263.07455
472.62149 114.85793 262.71774
474.81802 115.67924 262.83371
476.92358 115.58668 262.27557
478.47449 115.99913 262.07471
113.35896 117.38834 263.93805
114.87359 116.80078 263.409
116.68831 116.9634 262.55289
118.17666 116.467 262.00162
129.63481 116.92585 262.8938
130.05217 117.49755 263.96329
132.77737 117.24686 262.69449
141.00064 117.32481 263.84573
142.62584 116.54759 263.19315
145.14922 117.22147 262.63672
147.01421 117.35012 262.14188
298.93997 117.17651 262.07291
301.15979 117.25719 262.31619
302.85474 116.93822 262.47714
304.54764 117.05849 262.73322
307.59268 116.77386 263.03482
308.98441 117.00333 263.2854
311.27594 116.7692 263.52982
312.49799 116.63035 263.66501
314.3176 116.69501 263.91495
370.543 116.90237 262.74445
373.64713 117.13142 262.7822
471.72623 116.10168 263.75058
473.18375 116.67741 263.6001
475.06467 117.1432 263.27689
477.0444 117.26993 262.79346
479.1525 117.17619 262.22958
113.72589 119.01978 263.86307
114.8284 119.08376 263.40286
116.7185 119.04419 262.53949
129.66 118.98911 262.95834
130.01936 118.49505 263.87924
132.90086 119.17971 263.01096
141.39272 119.20382 263.60968
143.0363 118.92134 263.20532
145.14906 118.78742 262.61624
147.14835 118.83215 262.04852
299.00443 118.35547 262.14032
301.20935 119.07698 262.2887
303.31131 119.43592 262.43747
304.8587 119.13863 262.71527
307.11282 118.96684 263.05902
308.84604 119.07129 263.25388
310.80167 118.61452 263.59753
312.9364 118.9407 263.79022
315.0209 119.68142 263.88068
370.45068 119.1871 263.07541
373.52536 118.86072 263.21848
471.41202 119.61777 263.93164
472.87183 119.27444 263.67236
474.9852 118.88287 263.259
477.08411 118.87827 262.76688
478.90152 119.01527 262.27478
480.10696 118.26955 262.06775
115.27419 120.55955 263.83267
117.09344 120.83529 263.23279
118.61419 121.09073 262.81827
120.56528 121.63258 262.44775
129.54639 120.9991 262.66727
132.86124 121.13737 262.90939
136.7618 121.75027 263.49738
138.94698 121.18418 263.31052
140.65506 120.98772 262.89511
143.08939 120.76272 262.42947
303.57513 120.53776 262.03326
305.07385 120.40263 262.29849
306.62817 120.29836 262.53732
308.96463 120.75793 262.54044
311.03937 120.92321 262.66476
312.97437 120.90419 262.90771
314.96414 120.96838 263.09824
317.10483 121.25425 263.16928
318.88531 121.2787 263.36035
320.2836 121.41302 263.41422
322.81543 121.50658 263.68857
325.1347 121.70845 263.76035
326.80911 121.75537 263.89633
370.61038 121.32236 262.50302
373.62125 121.38401 262.87494
379.0202 121.92852 262.14731
381.19922 121.8844 262.18692
383.18759 121.74244 262.0943
385.05096 121.84631 262.30734
387.10507 121.8613 262.40771
389.10379 121.75608 262.32794
390.65512 121.6586 262.23831
393.29718 121.77861 262.43765
395.01935 121.68404 262.38303
396.25076 121.70421 262.40869
398.59851 121.39152 262.15335
400.83359 121.29063 262.08844
403.28116 121.60303 262.37393
404.82867 121.6536 262.43231
407.10193 121.65245 262.42035
408.44345 121.52325 262.25925
410.89014 121.63562 262.36218
412.83444 121.61993 262.32593
414.90219 121.66819 262.30606
416.7485 121.7572 262.32712
418.75919 121.79913 262.30557
421.19159 121.73975 262.15497
422.71838 121.68684 262.02115
424.66589 121.89687 262.20667
427.25488 121.99796 262.16107
463.17108 121.95432 263.9314
465.02524 121.99608 263.53842
467.27451 121.59844 263.56641
469.11731 121.31137 263.39017
471.16724 121.24777 262.97333
473.1683 120.95198 262.73788
474.92471 120.76526 262.51477
476.87006 120.37694 262.30045
119.21515 122.95329 262.89368
121.0428 122.7897 263.0647
122.98053 122.86849 263.07605
125.04548 122.94579 262.98471
126.93945 122.97041 263.00562
128.96811 122.85877 263.1427
132.94766 122.81653 263.06812
135.11688 122.88395 263.1301
136.87157 122.86273 263.17221
138.70667 122.87292 262.98849
317.19028 122.83144 262.90045
318.92679 122.89816 262.89581
321.14697 122.87931 263.14935
323.19281 122.80008 262.5343
324.9624 122.71668 262.73712
326.93677 122.71132 262.98502
329.01099 122.80884 262.98196
330.93619 122.89021 262.85272
333.04062 122.89185 262.84286
334.98422 122.92462 263.09061
336.86407 122.94077 263.17303
338.86337 122.90745 262.98724
340.9964 122.95892 263.0047
342.95459 122.96435 263.05664
357.07645 122.95186 262.98663
359.00995 122.97977 262.81064
360.983 122.94601 263.08493
365.03989 122.9296 263.00668
367.1431 122.91882 263.06174
368.8952 122.81902 263.00858
370.6586 122.92922 262.96057
372.91763 122.97035 263.17889
375.02866 122.85561 263.1636
377.1972 122.73633 263.05273
379.03296 122.85765 263.18512
381.13306 122.92487 262.9653
382.89841 122.73653 262.96655
384.9035 122.73425 263.08206
387.13245 122.78191 263.06158
389.19257 122.82935 263.1134
391.08978 122.8791 263.14459
393.2197 122.96885 263.16251
394.86523 122.73776 263.14853
397.07971 122.88585 263.09879
399.08142 122.77168 263.10577
400.88632 122.85973 263.08267
402.87854 122.88827 262.81137
404.85782 122.69321 263.09012
407.0907 122.80445 262.88599
409.05991 122.85058 263.0015
411.02344 122.8395 262.97269
412.95474 122.78783 263.0564
414.98248 122.82767 263.26758
416.96262 122.77702 262.70248
418.73071 122.88083 263.15558
420.82175 122.88011 263.13025
422.91931 122.66286 262.91943
424.94339 122.80064 263.00516
426.99918 122.78983 263.18527
429.19495 122.74663 262.84149
431.10602 122.91566 263.04626
433.01218 122.84628 263.0141
434.77188 122.95925 263.04715
436.86282 122.9269 262.91696
438.88449 122.9032 262.86758
441.02991 122.92961 262.82053
446.7558 122.97663 262.9783
451.07755 122.97723 263.05621
455.11646 122.95776 262.90073
456.99219 122.93388 263.09631
458.96918 122.87763 262.78662
460.99924 122.83048 263.01242
463.21112 122.91171 262.91064
465.01547 122.87582 263.05685
466.82156 122.8803 263.03162
468.85443 122.7635 262.76801
471.09863 122.91855 262.90411
115.64929 113.75163 265.47684
117.3923 113.55537 265.10074
119.05107 113.29404 265.14789
120.91368 113.12621 264.96381
122.6958 113.05053 264.66928
124.96948 113.07413 264.93103
127.01718 113.25353 265.01657
128.76894 113.41327 264.87277
130.15698 113.33649 264.23615
332.66507 113.85844 264.0578
336.85693 113.82834 264.47891
338.36057 113.83474 264.65054
341.26923 113.46008 264.29074
343.27692 113.51189 264.54718
345.15222 113.63177 265.01672
346.88028 113.59434 265.02045
349.14944 113.39044 264.79532
350.98071 113.40746 265.00092
352.87762 113.38885 265.18793
354.92932 113.18753 264.74451
356.86325 113.16998 264.81894
359.13428 113.12746 264.85495
360.78549 113.17685 265.16782
363.32907 113.08438 264.88943
364.97955 113.08752 265.04434
367.04367 113.08034 265.12421
368.93115 113.03306 264.84488
373.30286 113.24356 265.17126
375.06573 113.03268 265.00931
377.15875 113.05038 264.82608
378.94885 113.06719 265.05609
380.92627 113.0286 265.12271
383.21854 113.06597 264.92023
384.69421 113.04996 265.03525
387.40021 113.11943 264.69028
389.00867 113.09032 264.95639
390.80466 113.11337 264.73367
392.95801 113.07996 265.09869
395.22809 113.1486 264.73364
397.37277 113.07095 265.20316
399.02628 113.09759 264.99576
401.23309 113.07262 265.24487
402.89352 113.14046 264.96851
404.84897 113.1892 264.6312
407.08044 113.11491 264.94568
409.0343 113.15969 264.63324
411.35809 113.08098 265.08478
413.10083 113.02956 265.50073
415.28513 113.05589 265.19614
416.9939 113.14767 264.59875
419.09921 113.05608 265.02661
421.07281 113.08681 264.71878
423.1904 113.05941 265.06036
424.68253 113.03559 265.09427
427.15872 113.0314 264.90717
429.0607 113.03158 264.84778
431.03217 113.0401 264.93365
432.70984 113.0343 264.86118
435.03937 113.03993 264.86655
437.21225 113.03278 264.78293
439.1752 113.10686 265.11694
440.31036 113.04924 264.70917
442.71179 113.20283 265.16656
444.87131 113.25156 265.02878
446.91653 113.47754 265.46185
448.70822 113.37025 264.94424
450.89508 113.52545 264.98798
453.42508 113.65463 264.93512
454.90631 113.67517 264.72565
457.16711 113.65243 264.39703
458.61438 113.72668 264.27536
111.0771 115.62936 265.65045
112.77045 115.02527 265.29572
115.21816 114.59863 264.56619
116.68546 114.27177 264.22623
129.61588 114.08646 265.83746
130.5141 114.88051 265.14822
133.67456 115.17052 264.89868
134.8279 114.73588 264.63013
137.0491 115.4371 264.42361
138.67711 115.59167 264.01422
319.43979 115.81687 264.2233
321.18295 115.45477 264.24368
323.09686 115.52998 264.50381
325.33289 115.45414 264.73047
327.09259 115.039 264.62497
329.09802 115.00536 264.81552
331.04596 114.79012 264.84219
333.24207 114.45557 264.82242
335.22977 114.98582 265.47748
336.86295 114.52153 265.30688
338.944 114.47146 265.49225
340.55719 114.68692 265.90039
343.71182 114.11999 265.61362
347.71997 114.01552 265.85571
348.17914 114.07552 265.97473
369.74686 114.61609 265.59729
370.09811 114.33241 264.33871
373.0827 114.97958 264.80472
451.55365 114.08702 265.87149
452.80316 114.28789 265.9389
455.61087 114.49532 265.74368
457.04721 114.64327 265.67242
458.94528 114.47679 265.18082
461.07886 115.10061 265.30524
463.23187 115.05293 264.8793
464.92352 114.93972 264.50864
466.72174 115.71842 264.67798
468.97028 115.64806 264.15738
109.56658 117.36626 265.75986
111.0811 116.93535 265.13467
112.79983 117.04944 264.29959
130.39825 117.01613 264.85016
133.68672 116.83389 265.02469
135.31812 116.92274 265.61456
137.0629 117.14027 265.0802
139.3349 116.79127 264.27982
140.06599 117.80099 264.21045
315.11115 117.32233 264.12662
316.92844 117.08369 264.29352
318.56528 116.92446 264.45996
320.73425 116.95924 264.767
323.13409 117.11304 265.08377
325.3851 116.78458 265.25067
327.06644 116.96695 265.49533
329.12778 117.11095 265.74667
330.58524 116.80223 265.8624
332.63187 116.26125 265.95831
369.83569 116.55769 265.27893
370.10904 117.16775 264.29959
373.05798 116.82561 264.89325
461.93289 116.79611 265.98981
462.76248 116.80144 265.79559
465.08411 117.11203 265.43149
466.72116 116.86597 265.06229
468.65677 117.19931 264.73544
470.88107 117.22054 264.23645
109.61802 118.881 265.76791
111.24822 118.78718 264.9808
112.71859 119.04211 264.34097
130.4071 119.02534 264.87277
133.56387 118.7142 264.70984
135.44722 119.2199 265.54974
136.84709 118.98855 265.13177
138.90862 118.86646 264.47842
140.57823 118.28754 264.0423
313.66522 118.11262 264.00671
315.23462 118.76113 264.1395
316.90234 118.91086 264.29791
319.43256 118.79735 264.63434
320.79532 119.32807 264.70584
322.88712 119.0456 265.01187
324.88034 119.15853 265.2424
326.87 118.88185 265.52069
328.86469 119.20786 265.67374
330.80267 119.60603 265.78308
332.50647 119.96227 265.84927
369.80685 118.97063 265.38248
370.00455 119.87933 264.67395
373.0105 119.24274 265.06345
461.50217 119.6663 265.91678
463.2991 118.94144 265.76309
464.99017 118.97672 265.44141
467.07797 118.55633 265.12692
468.97012 118.88454 264.64764
470.86795 118.86232 264.22232
111.4565 120.46275 265.53256
113.11372 120.97854 265.1579
115.17953 121.22021 264.40109
117.10013 121.83485 264.17841
129.48915 121.96707 265.82709
130.52278 120.7985 265.20004
133.67126 120.99 264.72476
135.04472 120.78677 264.94577
137.17018 120.36491 264.51874
138.54103 120.31561 264.1041
319.90768 120.44166 264.14932
321.10812 120.61966 264.17798
323.36569 120.69009 264.41492
325.35745 120.73298 264.59225
326.98987 120.85995 264.70914
329.11856 121.30683 264.57504
330.56924 121.22175 264.80692
333.20599 121.07128 265.19073
334.2399 121.27782 265.15939
337.16266 121.27316 265.52441
338.5845 121.50517 265.48309
340.73016 121.70862 265.50958
342.96024 121.78625 265.65884
344.57571 121.9346 265.6337
346.75342 121.87306 265.91028
369.81686 121.33606 265.3465
373.06973 120.91032 264.85107
451.25433 121.89307 265.94525
452.69467 121.74145 265.91891
455.40485 121.63818 265.63388
456.89166 121.55199 265.5
459.29364 121.05662 265.48846
461.10181 121.03666 265.21225
462.73938 121.32373 264.65878
465.04694 120.52946 264.81842
467.0014 120.57989 264.44183
468.48615 120.36111 264.2619
115.08524 122.84348 265.16986
117.04657 122.80112 264.82614
118.94093 122.85 265.00586
120.89422 122.95834 264.95456
125.03996 122.95982 265.23059
127.16855 122.91517 265.31616
129.10892 122.79246 265.03937
130.75427 122.94754 265.28568
333.06204 122.95297 264.81451
335.32117 122.77859 264.68973
336.77924 122.78147 264.89093
338.95108 122.86575 264.97031
340.86429 122.8811 264.94684
342.84827 122.75637 264.92279
345.0419 122.84491 265.06763
347.07007 122.88989 265.12207
349.026 122.81953 265.04379
351.05533 122.8849 265.09265
352.90982 122.90707 264.88867
354.811 122.86068 264.94925
357.02048 122.87011 264.8577
