# .PCD v0.7 - Point Cloud Data file format
VERSION 0.7
FIELDS x y z
SIZE 4 4 4
TYPE F F F
COUNT 1 1 1
WIDTH 253
HEIGHT 1
VIEWPOINT 0 0 0 1 0 0 0
POINTS 253
DATA ascii
-0.3974061 -0.47310591 0.87051201
0.44130373 -0.73476553 0.2934618
-0.2774682 -0.91676188 1.1942301
-0.99898338 -0.463871 1.4628544
-0.52300406 0.43938732 0.083616734
0.89870596 -0.50492907 -0.39377689
-0.86362362 0.85352182 0.010101795
-0.4628129 -0.12971783 0.59253073
0.92615843 0.11429977 -1.0404582
-0.57059717 0.11092472 0.45967245
-0.85562706 -0.40181541 1.2574425
0.68657875 0.61013842 -1.2967172
-0.65813875 -0.93427277 1.5924115
0.83621264 -0.25086927 -0.58534336
0.19909716 -0.85077 0.65167284
-0.66169214 0.54584789 0.11584425
-0.80295849 -0.89808083 1.7010393
0.76882267 -0.85001421 0.08119154
-0.71544266 0.10935736 0.6060853
0.63976955 0.8353591 -1.4751287
0.21133137 -0.79614496 0.58481359
0.46679926 -0.19516182 -0.27163744
-0.46681595 0.033904076 0.43291187
-0.32234383 0.56722784 -0.24488401
0.72663355 0.38570452 -1.1123381
-0.23461676 -0.4885335 0.72315025
0.27864122 0.047146797 -0.32578802
0.040380001 0.95310211 -0.99348211
0.080900669 0.43971205 -0.52061272
0.32118034 0.62286139 -0.94404173
0.14006948 0.69511127 -0.83518076
0.49456453 -0.65046549 0.15590096
-0.40550041 -0.0065836906 0.4120841
-0.25382519 -0.64504051 0.8988657
-0.77721405 0.14559126 0.63162279
0.93931723 -0.632164 -0.30715322
-0.56233406 -0.11526728 0.67760134
-0.40176678 0.041944027 0.35982275
0.0037693977 0.27100849 -0.27477789
0.22985458 0.98244143 -1.212296
-0.79796457 0.88546228 -0.087497711
0.28351974 0.84255314 -1.1260729
0.63626719 -0.56515646 -0.071110725
-0.059166908 0.26592588 -0.20675898
0.78088617 0.76302147 -1.5439076
0.79903126 0.76087666 -1.5599079
0.028862 0.94161463 -0.97047663
-0.75886726 -0.4948945 1.2537618
0.27461958 -0.82264614 0.54802656
-0.080650806 0.68740177 -0.60675097
-0.94659328 -0.27559757 1.2221909
0.20896339 -0.93411922 0.72515583
-0.56014633 -0.78044415 1.3405905
0.59192562 -0.0099983215 -0.5819273
-0.55147028 0.55394888 -0.0024785995
-0.44651175 0.30500555 0.1415062
-0.56542683 0.7178669 -0.15244007
-0.77165079 -0.14678764 0.91843843
0.85605812 -0.31549549 -0.54056263
0.7046032 -0.80494118 0.10033798
0.95446301 0.099380493 -1.0538435
-0.67114496 0.21639347 0.45475149
0.7900424 -0.68322563 -0.11914635
0.038564682 0.75134802 -0.7899127
0.59872103 -0.98851013 0.3955965
-0.41656208 0.23983908 0.176723
-0.70728493 0.49009371 0.21719122
0.60236788 0.26078033 -0.86314821
-0.23732615 -0.019793987 0.25712013
-0.50395203 -0.88013363 1.3840857
0.74035883 0.32465553 -1.0650144
-0.41641426 0.92251778 -0.50610352
0.060474873 -0.87489033 0.81441545
0.13987446 0.83183718 -0.97171164
-0.14630222 0.19083452 -0.044532299
0.4808979 0.36075735 -0.84165525
-0.46164656 0.080761433 0.38088512
0.30764961 0.30992794 -0.61757755
0.89891291 -0.05589056 -0.84302235
-0.051280499 0.085434914 -0.034154415
0.8629961 0.7444849 -1.607481
0.68627644 -0.81831932 0.13204288
0.61680031 -0.67365742 0.056857109
0.022686481 -0.10404587 0.081359386
0.50493622 -0.73604107 0.23110485
-0.10272217 -0.27891111 0.38163328
-0.19144964 -0.23430967 0.42575932
0.96555471 -0.80074263 -0.16481209
0.17023706 -0.44769287 0.27745581
0.36627436 0.79576921 -1.1620436
0.81615496 -0.76617622 -0.049978733
-0.36570644 0.43713188 -0.071425438
-0.66084242 0.73779821 -0.076955795
-0.42801094 -0.33892679 0.76693773
-0.56271648 -0.60961962 1.1723361
-0.71050119 0.11714745 0.59335375
0.12004709 -0.85777998 0.73773289
-0.91394854 0.17911482 0.73483372
-0.54096842 -0.84750891 1.3884773
-0.90305901 0.13653708 0.76652193
0.10566235 0.98426151 -1.0899239
0.91052341 -0.45595169 -0.45457172
-0.30168295 -0.010197163 0.31188011
0.69440746 0.86422777 -1.5586352
-0.17789745 0.272645 -0.094747543
-0.32193851 0.76520538 -0.44326687
0.33041096 -0.70719337 0.37678242
0.031579971 -0.012004852 -0.019575119
0.96151829 0.58217955 -1.5436978
0.38217878 0.66825914 -1.0504379
-0.097855568 0.9180212 -0.82016563
0.59171104 -0.58974123 -0.0019698143
-0.33632565 -0.10414743 0.44047308
-0.56243372 0.99169922 -0.4292655
0.81907082 -0.50951004 -0.30956078
0.81809664 -0.95119619 0.13309956
-0.3855257 -0.055175304 0.44070101
-0.35097075 -0.039296627 0.39026737
-0.3153162 0.66419458 -0.34887838
0.3953228 -0.98753977 0.59221697
0.49157524 0.17571354 -0.66728878
0.49626398 -0.23258686 -0.26367712
0.035865307 0.24334002 -0.27920532
-0.56805944 0.74763823 -0.17957878
-0.90081882 0.20390511 0.69691372
0.036667347 0.91650248 -0.95316982
0.33269072 -0.85574389 0.52305317
-0.70880222 -0.13912296 0.84792519
-0.32892036 -0.78179359 1.110714
0.34541512 0.85793877 -1.2033539
0.81261301 -0.98236752 0.16975451
-0.64013624 -0.7383666 1.3785028
0.72845984 0.48381376 -1.2122736
-0.847857 0.46851683 0.37934017
0.19904709 0.68420887 -0.88325596
-0.81411934 -0.72245455 1.5365739
0.34530592 -0.93705225 0.59174633
-0.24755812 -0.71376514 0.96132326
-0.53613758 0.93621683 -0.40007925
-0.23040104 -0.32542372 0.55582476
0.23291111 -0.32204914 0.089138031
-0.51787853 0.28785658 0.23002195
-0.91637611 0.79557323 0.12080288
-0.11094618 -0.95030451 1.0612507
-0.55446243 0.90246439 -0.34800196
0.30720568 -0.86369133 0.55648565
-0.21282101 -0.87782955 1.0906506
0.9032445 0.64121485 -1.5444593
-0.94980478 -0.12550497 1.0753098
0.60899973 0.54038906 -1.1493888
-0.52110291 0.062716961 0.45838594
0.88145542 -0.32743311 -0.57057333
0.30635262 -0.020226955 -0.28612566
-0.81905222 -0.80699444 1.6260467
0.2153492 0.37735558 -0.59270477
0.084796906 -0.22245216 0.13765526
0.21447134 0.58085251 -0.79532385
0.94826269 -0.085186958 -0.86307573
0.69017553 0.13607121 -0.82624674
0.43618536 0.43685913 -0.87304449
-0.91299725 0.64273739 0.27025986
-0.54344654 0.1651144 0.37833214
-0.42347956 0.71374702 -0.29026747
-0.084148884 -0.50594473 0.59009361
0.6518569 -0.13322449 -0.51863241
-0.99825716 0.65519571 0.34306145
-0.5294838 0.82364941 -0.29416561
-0.9045887 -0.78460407 1.6891928
-0.79395199 -0.18042994 0.97438192
-0.42191744 -0.16028118 0.58219862
-0.81680822 -0.70558405 1.5223923
0.0057816505 -0.35522032 0.34943867
-0.7487936 -0.96415567 1.7129493
-0.89095736 0.071939468 0.81901789
-0.27524471 -0.61582804 0.89107275
0.49992132 -0.26874304 -0.23117828
0.16407824 -0.45746851 0.29339027
-0.81834173 -0.94704485 1.7653866
-0.78822517 0.60148716 0.18673801
0.44881439 0.52589321 -0.9747076
-0.035056591 0.18365288 -0.14859629
-0.60377073 0.59942389 0.0043468475
0.44190073 0.70806646 -1.1499672
0.6868639 -0.70820856 0.021344662
-0.57352209 -0.27101231 0.8445344
0.82157469 -0.4705801 -0.35099459
0.37574959 0.43647242 -0.812222
0.50879765 -0.13983154 -0.3689661
0.094162464 -0.98121643 0.88705397
0.86746359 -0.71767807 -0.14978552
-0.93721914 -0.89786291 1.8350821
0.67436123 -0.87208509 0.19772387
-0.29952002 0.72184324 -0.42232323
0.57189178 0.381248 -0.95313978
-0.54989195 -0.19854689 0.74843884
-0.89416885 -0.57020426 1.4643731
-0.52123213 0.58932018 -0.068088055
0.39033461 -0.31834793 -0.071986675
-0.37697983 -0.19702291 0.57400274
-0.064628601 0.23082924 -0.16620064
-0.98519373 0.43143082 0.55376291
0.13648462 0.097551823 -0.23403645
-0.47098637 -0.70551443 1.1765008
-0.89092731 0.12694025 0.76398706
0.011174202 0.75566912 -0.76684332
-0.29215813 0.69613457 -0.40397644
0.58355665 0.77932405 -1.3628807
-0.89734936 0.45961523 0.43773413
-0.50731134 -0.94477654 1.4520879
-0.12840462 0.81517363 -0.68676901
-0.85179234 -0.13380194 0.98559427
-0.88190126 0.88846445 -0.0065631866
-0.99944735 0.34709167 0.65235567
-0.7966485 0.21209145 0.58455706
-0.59482956 0.56463766 0.030191898
-0.4146452 0.8465848 -0.4319396
-0.96626472 -0.34766769 1.3139324
-0.80523205 0.85532665 -0.050094604
0.37440157 -0.48158312 0.10718155
-0.36382389 -0.98994017 1.3537641
0.57825089 0.17118406 -0.74943495
0.91738558 0.95713091 -1.8745165
0.69436789 -0.96296644 0.26859856
-0.053456783 0.45694304 -0.40348625
0.2484498 0.04236412 -0.29081392
-0.87891865 0.85057974 0.028338909
0.94114065 0.53928185 -1.4804225
0.93395185 0.50517321 -1.4391251
0.32944441 -0.37892151 0.0494771
0.31976652 -0.61042404 0.29065752
0.3150034 0.19780493 -0.51280832
0.94897509 -0.070691109 -0.87828398
-0.12061787 0.74924803 -0.62863016
0.34067965 0.60111189 -0.94179153
-0.64931965 -0.46168661 1.1110063
0.032155037 -0.7840476 0.75189257
-0.57153893 -0.31264448 0.88418341
0.77532101 -0.52266073 -0.25266027
0.31523228 0.91749191 -1.2327242
0.37172985 -0.9144659 0.54273605
0.71358728 0.56461906 -1.2782063
0.8140626 -0.10535574 -0.70870686
-0.15793562 0.61344624 -0.45551062
-0.55006504 -0.019502163 0.5695672
-0.095403671 0.19005919 -0.094655514
0.52075195 0.31102085 -0.8317728
0.31485033 0.42010403 -0.73495436
-0.44961596 0.96162939 -0.51201344
-0.55576563 0.069205761 0.48655987
-0.098128319 -0.15147877 0.24960709
0.27348804 0.42561769 -0.69910574
0.84832144 0.73034 -1.5786614
0.20088911 -0.8163805 0.61549139
