# .PCD v0.7 - Point Cloud Data file format
VERSION 0.7
FIELDS x y z
SIZE 4 4 4
TYPE F F F
COUNT 1 1 1
WIDTH 1612
HEIGHT 1
VIEWPOINT 0 0 0 1 0 0 0
POINTS 1612
DATA ascii
47.44537 22.431562 485.61414
48.403404 22.454245 485.3739
49.30349 22.604618 485.1481
19.610241 23.585295 485.90988
20.334347 23.449993 485.72824
21.463469 23.479984 485.44501
22.491461 23.62883 485.21509
23.532232 23.573219 485.27927
24.614071 23.551821 485.44388
25.302366 23.533377 485.54868
26.677744 23.362827 485.75797
27.404135 23.551352 485.8685
28.12859 23.470203 485.97873
46.350094 23.507027 485.88885
47.532181 23.30097 485.59238
48.435165 23.577785 485.36588
49.50703 23.607744 485.09702
19.598209 24.512882 485.9129
20.318241 24.59878 485.7323
21.454794 24.420528 485.4472
22.500269 24.483213 485.21509
23.497309 24.544016 485.27393
24.569576 24.744467 485.43716
25.487694 24.392803 485.57684
26.644785 24.469635 485.75293
27.462015 24.499395 485.87726
46.671997 24.546516 485.80817
47.483273 24.354284 485.60464
48.44603 24.647427 485.36316
49.412277 24.375601 485.12076
19.592594 25.491129 485.91431
20.361019 25.606197 485.72159
21.431952 25.71084 485.45297
22.386169 25.565807 485.21417
23.523602 25.571152 485.27798
24.570812 25.496696 485.43732
25.479216 25.573807 485.57556
26.527557 25.480982 485.73508
27.499252 25.296606 485.88297
28.149277 25.570255 485.98187
45.929691 25.526297 485.99432
46.538666 25.354889 485.84158
47.508434 25.38665 485.5983
48.651901 25.391884 485.31152
49.265598 25.699553 485.15759
19.611753 26.512663 485.90948
20.499121 26.498243 485.68689
21.517179 26.488644 485.43155
22.384733 26.285706 485.21396
23.503046 26.496767 485.27487
24.376907 26.35116 485.40781
25.503099 26.495831 485.57919
26.45727 26.497059 485.7244
27.578949 26.657627 485.89508
28.207062 26.733543 485.99069
46.633686 26.518349 485.81769
47.40416 26.546045 485.62448
48.380013 26.328897 485.37973
49.411274 26.6014 485.121
19.593988 27.771185 485.91394
20.462885 27.555433 485.69595
21.488541 27.35158 485.43869
22.464813 27.312353 485.20444
23.490925 27.462067 485.27298
24.624924 27.769258 485.44556
25.535221 27.403038 485.58411
26.343571 27.409325 485.70709
27.700272 27.392084 485.91354
28.198629 27.670481 485.98938
46.728065 27.304256 485.7941
47.467308 27.440453 485.60867
48.484821 27.662933 485.35342
49.343201 27.585352 485.13812
19.637352 28.443319 485.90308
20.549536 28.099878 485.67426
21.634535 28.453457 485.40216
22.50898 28.658768 485.19864
23.497496 28.492167 485.27396
24.35095 28.344378 485.40387
25.219345 28.481272 485.53598
26.504601 28.569059 485.73163
27.588243 28.564611 485.89651
28.149431 28.567911 485.9819
46.472942 28.431248 485.85806
47.515087 28.616199 485.59662
48.409248 28.510021 485.37238
49.222897 28.643215 485.1683
19.665314 29.223915 485.89606
20.434311 29.562578 485.70312
21.601511 29.375862 485.4104
22.379208 29.3095 485.22958
23.456055 29.692932 485.26767
24.253628 29.304176 485.38907
25.359501 29.401402 485.55734
26.518242 29.553738 485.73367
27.272909 29.528179 485.84854
46.369461 29.517471 485.88397
47.534866 29.497719 485.59167
48.306778 29.652475 485.39807
49.595715 29.501688 485.0748
19.79071 30.632774 485.86459
20.395866 30.55743 485.71283
21.503727 30.354597 485.43491
22.427307 30.565571 485.23395
23.716133 30.52491 485.30728
24.650002 30.546125 485.44934
25.454523 30.413559 485.57178
26.496819 30.423634 485.73038
27.447767 30.409817 485.87512
28.184839 30.53392 485.9873
45.965916 30.023975 485.98523
46.548264 30.519253 485.8392
47.489151 30.515818 485.60315
48.47438 30.377892 485.35602
49.537125 30.42774 485.08951
19.706417 31.465765 485.88574
20.647787 31.566139 485.64963
21.491245 31.501646 485.43808
22.473494 31.575048 485.21423
23.606098 31.474461 485.29053
24.37266 31.329004 485.4072
25.352081 31.54458 485.55618
26.741083 31.445507 485.76758
27.754145 31.444008 485.92175
28.089996 31.658556 485.97287
46.625923 31.530197 485.81967
47.571487 31.500536 485.58252
48.458439 31.591806 485.36002
49.184231 31.851324 485.17798
19.551531 32.293941 485.92459
20.414288 32.577621 485.70822
21.362942 32.480835 485.47025
22.463064 32.362804 485.19772
23.418612 32.336414 485.26196
24.397589 32.573605 485.41098
25.55064 32.548939 485.58643
26.631474 32.451435 485.75092
27.43973 32.283482 485.8739
28.177113 32.773193 485.98611
46.448376 32.5811 485.86414
47.469662 32.303806 485.60803
48.499672 32.406425 485.34967
49.368752 32.47274 485.13168
19.668242 33.541309 485.89536
20.399164 33.427605 485.71198
21.690212 33.456005 485.38812
22.333334 33.443127 485.24454
23.619059 33.743198 485.29248
24.403761 33.450806 485.4119
25.425333 33.442085 485.56735
26.380842 33.630539 485.71274
27.465927 33.455303 485.8779
28.171528 33.543678 485.98529
45.982639 33.198296 485.98102
46.566841 33.397018 485.83453
47.465256 33.416931 485.60916
48.54557 33.678341 485.33817
49.31348 33.617252 485.1456
19.645678 34.477547 485.90094
20.509436 34.499023 485.68436
21.334635 34.689648 485.47733
22.490814 34.636539 485.21875
23.459291 34.438416 485.26819
24.546255 34.535355 485.43359
25.423637 34.673027 485.56711
26.452902 34.542889 485.72375
27.506788 34.471207 485.88409
28.138451 34.243816 485.98022
46.221081 34.651283 485.9212
47.534721 34.384857 485.59174
48.405624 34.450546 485.37326
49.326885 34.30648 485.14224
19.610085 35.556999 485.90991
20.473524 35.484123 485.69333
21.587255 35.440487 485.414
22.645298 35.365147 485.19321
23.355989 35.545452 485.25247
24.544897 35.407642 485.43338
25.443859 35.454216 485.57016
26.576218 35.417366 485.74252
27.469286 35.744328 485.87842
28.128805 35.476906 485.97876
46.592678 35.417736 485.82806
47.55941 35.4594 485.58548
48.470688 35.595104 485.35696
49.391838 35.675503 485.12595
19.718796 36.32777 485.88266
20.664951 36.433636 485.64532
21.465086 36.46246 485.44461
22.419867 36.434734 485.22437
23.618713 36.40752 485.29245
24.474352 36.473705 485.42261
25.636856 36.360176 485.59952
26.425505 36.475658 485.7196
27.541359 36.537048 485.88937
28.18117 36.491982 485.98672
46.436275 36.533447 485.86728
47.46257 36.559929 485.6098
48.441368 36.499428 485.36432
49.612659 36.677189 485.07053
19.604303 37.709316 485.91138
20.4562 37.59103 485.69763
21.488728 37.474007 485.43866
22.569878 37.592678 485.19373
23.490099 37.532574 485.27292
24.543558 37.572052 485.43326
25.535942 37.544796 485.58423
26.449835 37.471828 485.72327
27.483303 37.49461 485.88052
28.179739 37.493862 485.98651
46.635048 37.622471 485.81738
47.491379 37.46022 485.60254
48.497116 37.372074 485.35034
49.453922 37.525196 485.11035
19.505262 38.55257 485.93619
20.46176 38.549908 485.69626
21.36536 38.552734 485.46964
22.640083 38.418335 485.20041
23.760336 38.578964 485.31403
24.497419 38.418758 485.42615
25.545591 38.463703 485.58566
26.591436 38.585442 485.74481
27.546526 38.527336 485.89014
28.180079 38.525055 485.98657
45.94099 38.566017 485.99146
46.373859 38.55106 485.8829
47.443874 38.493664 485.61453
48.616955 38.61869 485.32025
49.347027 38.338501 485.13718
19.618773 39.599289 485.90771
20.550142 39.636341 485.6741
21.294205 39.504814 485.48749
22.52655 39.388744 485.19601
23.463289 39.375572 485.2688
24.505054 39.527046 485.42731
25.526363 39.501698 485.5827
26.441389 39.647678 485.72198
27.609695 39.424782 485.89981
28.130857 39.620193 485.9791
46.589855 39.453732 485.82874
47.492451 39.523636 485.60233
48.249989 39.578686 485.41232
49.624622 39.496792 485.06754
19.527744 40.549671 485.93051
20.431145 40.631718 485.70398
21.357386 40.375935 485.47165
22.471527 40.358902 485.22314
23.465244 40.541748 485.2691
24.44175 40.598663 485.41769
25.526724 40.561295 485.58286
26.43576 40.514877 485.72113
27.411816 40.521633 485.86969
28.025949 40.132992 485.9631
46.485458 40.378136 485.85486
47.508629 40.622566 485.59824
48.37833 40.486137 485.38019
49.541969 40.391102 485.08826
19.72716 41.710907 485.88055
20.5744 41.508167 485.668
21.454084 41.352295 485.44736
22.48078 41.644066 485.21262
23.408249 41.501587 485.26044
24.573387 41.595341 485.43771
25.482933 41.625603 485.57617
26.459681 41.498234 485.72476
27.550505 41.586903 485.89084
28.01202 41.9669 485.961
45.945793 41.47226 485.99026
46.461727 41.443466 485.8609
47.429073 41.405537 485.61819
48.604782 41.430763 485.32336
49.491013 41.616455 485.10104
19.753498 42.554607 485.87393
20.519152 42.297581 485.68188
21.474092 42.413963 485.44238
22.437912 42.530247 485.23904
23.521294 42.449581 485.27762
24.655689 42.524948 485.45026
25.319296 42.352886 485.55124
26.492912 42.374775 485.72983
27.478369 42.560093 485.87979
28.227781 42.458916 485.99384
45.926968 42.353443 485.995
46.549496 42.583015 485.83887
47.477314 42.424309 485.60611
48.420662 42.330776 485.36951
49.459229 42.334686 485.10901
19.586758 43.44146 485.91577
20.284164 43.589603 485.74081
21.391125 43.575771 485.4632
22.449293 43.647301 485.22314
23.705606 43.710083 485.30566
24.520111 43.613583 485.4296
25.542833 43.591755 485.58521
26.450626 43.620533 485.72336
27.443579 43.413498 485.87451
28.127407 43.432362 485.97852
46.580448 43.460743 485.83115
47.509075 43.550434 485.59814
48.519409 43.400211 485.34473
49.681145 43.403149 485.05338
19.738592 44.441959 485.87769
20.535252 44.647705 485.67786
21.452204 44.487873 485.44788
22.446932 44.268398 485.21231
23.552771 44.542622 485.28238
24.605995 44.452389 485.44272
25.461897 44.453297 485.57297
26.324362 44.431305 485.70413
27.445734 44.401398 485.87479
28.198868 44.68351 485.98944
45.946339 44.921173 485.99014
46.46447 44.614269 485.86017
47.465794 44.685814 485.60901
48.51305 44.40976 485.34628
49.547611 44.47736 485.08679
19.764215 45.468353 485.87125
20.453796 45.434738 485.69827
21.357141 45.618973 485.47168
22.498602 45.463593 485.19821
23.500128 45.506966 485.27438
24.341509 45.323818 485.40244
25.490231 45.49144 485.57721
26.373421 45.495083 485.71164
27.74007 45.522224 485.91962
28.109331 45.26923 485.9758
46.500114 45.485249 485.85123
47.341724 45.453739 485.64014
48.487049 45.424694 485.35284
49.526173 45.552074 485.09222
19.649221 46.526196 485.90005
20.493773 46.74485 485.68826
21.482161 46.326916 485.44034
22.580862 46.702278 485.17203
23.443216 46.444294 485.26575
24.431585 46.292179 485.41614
25.72142 46.596569 485.61243
26.431919 46.610516 485.72052
27.364273 46.516781 485.86243
28.153141 46.107578 485.98248
45.956024 46.433517 485.98773
46.463947 46.513981 485.86029
47.440189 46.530354 485.61545
48.451694 46.692677 485.36176
49.442822 46.412361 485.11313
19.581623 47.555908 485.91705
20.483276 47.541313 485.69089
21.504053 47.422642 485.43481
22.575109 47.517056 485.20621
23.768988 47.293724 485.31528
24.46446 47.498905 485.42114
25.41503 47.378807 485.5658
26.552765 47.626595 485.73892
27.345331 47.455524 485.85953
28.170675 47.649853 485.98514
45.985649 47.105667 485.98029
46.706326 47.770752 485.7995
47.514927 47.220581 485.59668
48.501514 47.603539 485.34921
49.354649 47.425873 485.13525
19.780294 48.753155 485.86719
20.590748 48.688171 485.66394
21.547707 48.541058 485.42392
22.374786 48.501434 485.22397
23.595945 48.4543 485.28894
24.629406 48.402176 485.44623
25.617136 48.438286 485.59659
26.5385 48.640076 485.73672
27.592434 48.485493 485.89716
28.162144 48.598892 485.98383
45.987629 48.353828 485.97977
46.635487 48.464458 485.81723
47.632641 48.480301 485.56714
48.545895 48.592258 485.3381
49.500107 48.431175 485.09875
19.563898 49.540932 485.92148
20.542738 49.227386 485.67593
21.60557 49.733269 485.40939
22.539965 49.464478 485.20651
23.40132 49.534489 485.25931
24.467089 49.655617 485.42154
25.640289 49.387833 485.6001
26.291515 49.374317 485.69922
27.610605 49.572811 485.8999
45.921703 49.579643 485.99631
46.479431 49.511448 485.85645
47.300194 49.661285 485.65054
48.47842 49.565296 485.35504
49.339874 49.547729 485.13892
19.63747 50.298023 485.90305
20.362879 50.441467 485.7211
21.4904 50.339825 485.43826
22.20126 50.49646 485.25995
23.487776 50.295994 485.27252
24.380667 50.443153 485.40839
25.4534 50.473797 485.57162
26.582674 50.530853 485.74344
27.439068 50.64666 485.87378
28.160255 50.751068 485.98355
45.969715 50.315681 485.98425
46.604553 50.46896 485.82501
47.625305 50.493118 485.56897
48.446739 50.48135 485.36295
49.363453 50.579655 485.133
19.636896 51.402576 485.9032
20.428007 51.892426 485.70477
21.546576 51.472763 485.42419
22.476414 51.581375 485.20215
23.45915 51.588303 485.26816
24.246445 51.55785 485.38794
25.706657 51.754818 485.6102
26.382572 51.357342 485.71307
27.572962 51.718906 485.8942
28.125454 51.24321 485.97827
45.970974 51.275349 485.98392
46.482147 51.402355 485.8558
47.55323 51.517494 485.58713
48.490227 51.488411 485.35205
19.441076 52.436859 485.95227
20.635202 52.360424 485.65277
21.34724 52.451607 485.47418
22.510351 52.370667 485.20923
23.432772 52.503845 485.26413
24.439266 52.631386 485.4173
25.191849 52.479641 485.53183
26.688034 52.60265 485.75952
27.742659 52.719311 485.91998
28.191931 52.254982 485.98837
45.946533 52.323639 485.99008
46.58469 52.587925 485.83002
19.579084 53.489445 485.91769
20.569117 53.553043 485.66934
21.36801 53.538452 485.46896
22.493097 53.64262 485.21097
23.50177 53.443409 485.27466
24.427757 53.425911 485.41559
25.360676 53.508495 485.55756
26.412178 53.319557 485.71756
27.530327 53.53688 485.8877
28.084793 53.573757 485.97208
19.591253 54.513054 485.91467
20.605135 54.542648 485.66031
21.705986 54.556179 485.38419
22.689968 54.37122 485.1633
23.463621 54.357311 485.26883
24.632679 54.348072 485.44678
25.53537 54.423546 485.58414
26.580738 54.4645 485.74316
27.774988 54.372086 485.92493
28.165159 54.595982 485.98428
19.439734 55.559948 485.95264
20.43701 55.344841 485.70248
21.551176 55.450233 485.42307
22.51067 55.788132 485.22485
23.50742 55.702579 485.27548
24.518559 55.474453 485.42938
25.400841 55.630344 485.56363
26.509846 55.456291 485.73242
27.521069 55.643658 485.88629
28.049942 55.674431 485.96677
20.569813 56.582195 485.66916
21.615192 56.390102 485.40695
22.544819 56.445793 485.21323
23.700037 56.28223 485.30481
24.491423 56.440712 485.42523
25.325691 56.562717 485.55219
26.535534 56.485275 485.73633
27.507078 56.388515 485.88416
28.153107 56.544052 485.98245
23.651665 57.317719 485.29745
24.638103 57.539928 485.44757
25.599409 57.403519 485.59384
26.577169 57.577801 485.74268
27.401005 57.524231 485.86804
28.262939 57.359386 485.99918
31.473574 1.6706296 486.48776
28.530655 2.1826127 486.03992
29.525011 2.2924867 486.19125
30.498264 2.7278531 486.33929
31.62801 2.4800453 486.51123
32.563374 2.6797926 486.65366
33.49564 2.5609281 486.79544
34.416935 2.7010818 486.93564
19.073463 3.923878 486.04449
28.727844 3.4400966 486.06992
29.41573 3.4826472 486.17462
30.426464 3.6740088 486.32843
31.506554 3.341521 486.49277
32.565998 3.4133136 486.65396
33.487167 3.5673676 486.79416
34.376339 3.733747 486.92947
17.43716 4.5358582 486.45493
18.384901 4.4998269 486.21719
19.245571 4.546946 486.00134
28.745428 4.4911971 486.0726
29.464399 4.4563217 486.18204
30.477879 4.5137572 486.33621
31.373169 4.4595327 486.47244
32.535816 4.6095819 486.64938
33.612949 4.3109827 486.81332
34.476696 4.4890323 486.94473
42.660675 4.8045721 486.81427
15.573418 5.490942 486.92242
16.585695 5.4499454 486.66849
17.293901 5.5993295 486.49091
18.520397 5.5353661 486.18326
19.147816 5.4676871 486.02588
28.726904 5.4553599 486.06976
29.444887 5.6000633 486.17902
30.418154 5.5358453 486.32715
31.520718 5.4753981 486.49493
32.628559 5.5190821 486.66351
33.413506 5.4611869 486.78296
34.449352 5.4301414 486.94058
42.490925 5.6074023 486.85681
43.618668 5.5808821 486.57394
44.551319 5.6885529 486.34009
15.654205 6.3827291 486.90219
16.529667 6.4493794 486.68256
17.576572 6.4762802 486.41995
18.641735 6.4804363 486.15283
19.014782 6.7616391 486.0592
28.608145 6.6943173 486.05173
29.244331 6.4971719 486.14853
30.553625 6.5725446 486.34778
31.591824 6.5461698 486.50574
32.592548 6.4404407 486.65799
33.600079 6.4899788 486.81134
34.384884 6.4146829 486.93079
41.926437 6.1921849 486.99841
42.410671 6.6085973 486.87698
43.40934 6.6194167 486.62646
44.560318 6.4980016 486.3378
45.335083 6.5769463 486.14346
15.672346 7.4943151 486.89761
16.557138 7.5348806 486.67566
17.527987 7.5822725 486.43213
18.494682 7.5895767 486.18967
19.064491 7.7578368 486.04678
28.727192 7.4866495 486.06982
29.401314 7.6508412 486.17245
30.516323 7.4543943 486.3421
31.457821 7.639132 486.48538
32.716518 7.6639895 486.67688
33.555496 7.4709415 486.80457
34.36459 7.5582237 486.9277
41.946442 7.4204197 486.99341
42.438526 7.3571949 486.86993
43.37487 7.3327761 486.63516
44.408096 7.4721909 486.37598
45.42683 7.3897371 486.12048
15.632239 8.4565592 486.90762
16.179165 8.2293463 486.77051
17.497801 8.5820951 486.43973
18.460041 8.4417372 486.19839
19.145042 8.6802292 486.02655
28.604694 8.3710155 486.05121
29.34861 8.7527609 486.16443
30.461576 8.4266396 486.33377
31.588312 8.1954679 486.50516
32.339691 8.6407337 486.61957
33.616379 8.5867033 486.81384
34.390739 8.4839869 486.9317
42.337513 8.5338955 486.89532
43.34325 8.6071482 486.64304
44.355225 8.4911585 486.38925
45.340229 8.438653 486.14218
15.672781 9.5227213 486.89749
16.406427 9.4689207 486.71347
17.595848 9.4769945 486.41516
18.407898 9.5524521 486.21146
19.164383 9.2046757 486.0217
28.529175 9.4525137 486.03967
29.428759 9.384347 486.17661
30.621552 9.7187138 486.35809
31.700729 9.475153 486.52231
32.383862 9.6792793 486.62628
33.420498 9.5290537 486.78403
34.321938 9.3181362 486.9212
42.415222 9.3824883 486.87582
43.50536 9.4559355 486.60242
44.589806 9.5074091 486.33038
45.493881 9.5432405 486.10367
15.570988 10.364388 486.923
16.433605 10.498341 486.70667
17.527693 10.451758 486.43222
18.387836 10.458028 486.21652
19.15974 10.082508 486.02289
28.708151 10.349809 486.06696
29.346317 10.619991 486.16406
30.407333 10.390183 486.32553
31.647226 10.525339 486.51416
32.305485 10.571389 486.61435
33.38015 10.454532 486.77786
34.344154 10.478634 486.92456
41.939548 10.441671 486.99512
42.430073 10.479198 486.87207
43.578129 10.38328 486.58414
44.356457 10.6902 486.38895
45.385971 10.512723 486.13068
15.540308 11.524048 486.93073
16.475117 11.493995 486.69623
17.58506 11.634923 486.41785
18.390665 11.612144 486.21579
19.143362 11.347698 486.02698
28.631786 11.607462 486.0553
29.609585 11.641315 486.20413
30.453705 11.512401 486.33255
31.37458 11.418349 486.47272
32.647568 11.605913 486.66641
33.423828 11.591997 486.78452
34.513336 11.618785 486.95032
42.559208 11.46187 486.83975
43.479774 11.406826 486.6088
44.528221 11.616922 486.34589
45.442371 11.46902 486.11655
15.618186 12.581665 486.91116
16.61915 12.655866 486.66016
17.613115 12.528636 486.4108
18.734335 12.527752 486.12955
28.632151 12.456289 486.05536
29.357809 12.659268 486.1658
30.571877 12.525044 486.35049
31.660297 12.626094 486.51617
32.488861 12.807314 486.64227
33.46862 12.625279 486.79135
34.399525 12.350231 486.93298
41.990246 12.038795 486.98242
42.368473 12.444611 486.88757
43.449345 12.444961 486.61649
44.364937 12.558043 486.38678
45.486649 12.474393 486.10544
15.565593 13.697912 486.92441
16.451164 13.391242 486.7023
17.404186 13.512853 486.46323
18.405092 13.754531 486.21216
19.123571 13.226072 486.03192
28.517405 13.372101 486.03793
29.486933 13.615404 486.18539
30.466028 13.582438 486.33447
31.465672 13.314344 486.48657
32.598133 13.54947 486.65891
33.745396 13.463482 486.83347
34.307121 13.577544 486.91895
41.954647 13.4374 486.99136
42.368546 13.467114 486.88754
43.408585 13.649154 486.62662
44.501633 13.442599 486.35251
45.497856 13.576335 486.10263
15.642737 14.557088 486.90503
16.425247 14.639499 486.70874
17.422506 14.443366 486.45862
18.418203 14.719869 486.20886
19.12764 14.934243 486.03094
28.651243 14.3748 486.05829
29.428534 14.430696 486.17657
30.432997 14.516632 486.32938
31.482153 14.432851 486.48907
32.497265 14.603683 486.64352
33.594307 14.531967 486.81049
34.35965 14.572392 486.92691
41.999393 14.869918 486.98013
42.520428 14.613004 486.84946
43.548134 14.453613 486.59164
44.623535 14.442523 486.32196
45.396549 14.560201 486.12805
15.539266 15.550757 486.93097
16.61677 15.452703 486.66074
17.585602 15.513037 486.41772
18.494566 15.568233 486.18967
19.124411 15.89932 486.03174
28.580418 15.385954 486.04745
29.349945 15.447482 486.16458
30.434183 15.55748 486.32962
31.382925 15.445628 486.47397
32.362206 15.212175 486.62299
33.341328 15.735011 486.77194
34.42345 15.641549 486.93665
41.952087 15.394135 486.99197
42.612179 15.48385 486.82648
43.40947 15.50238 486.6264
44.659935 15.678462 486.31281
45.491646 15.342141 486.10422
15.610939 16.393126 486.91299
16.419357 16.432245 486.71027
17.51096 16.457998 486.43646
18.475767 16.54653 486.19446
19.210245 16.454447 486.01022
28.801693 16.32795 486.08115
29.446205 16.448938 486.17923
30.516386 16.576015 486.34207
31.362356 16.473558 486.47083
32.411255 16.424772 486.63043
33.63829 16.446178 486.8172
34.40303 16.459276 486.9335
41.924931 16.595245 486.99881
42.530598 16.760668 486.84689
43.574238 16.434381 486.58511
44.556335 16.549137 486.33881
45.269768 16.729546 486.15982
15.493675 17.474817 486.94241
16.46846 17.508455 486.69791
17.510082 17.631422 486.43665
18.443008 17.565907 486.20264
28.844227 17.649891 486.08765
29.427246 17.606833 486.17636
30.373951 17.462254 486.3204
31.334135 17.572851 486.46658
32.436722 17.497095 486.63434
33.502872 17.469984 486.79657
34.492847 17.674709 486.9472
42.412071 17.485912 486.87665
43.612499 17.291294 486.57553
44.372925 17.459764 486.38477
45.447079 17.485756 486.11536
15.515956 18.487963 486.93686
16.480629 18.459064 486.69489
17.324966 18.541521 486.48309
18.512501 18.411592 486.18524
19.13056 18.683224 486.03018
28.629238 18.451815 486.0549
29.643476 18.39613 486.20923
30.515326 18.458303 486.34195
31.539663 18.410902 486.49783
32.499771 18.340124 486.64392
33.317299 18.504646 486.76834
34.230362 18.647243 486.90726
41.930416 18.392269 486.99744
42.524075 18.501831 486.84851
43.396336 18.449457 486.62973
44.409565 18.480011 486.37561
45.408199 18.582861 486.12512
15.620591 19.68824 486.91058
16.323439 19.508291 486.73434
17.535118 19.462135 486.4303
18.745197 19.483883 486.12686
19.077618 19.453955 486.04346
28.705294 19.392504 486.06644
29.380835 19.375042 486.16931
30.561987 19.481241 486.34903
31.411459 19.605183 486.47827
32.597832 19.43343 486.65884
33.531769 19.411533 486.80093
34.351646 19.419653 486.92572
41.966003 19.357294 486.98849
42.342216 19.38892 486.89413
43.63063 19.40789 486.57098
44.457039 19.527012 486.36374
45.547318 19.431587 486.09027
15.649494 20.545362 486.90332
16.502314 20.56385 486.68942
17.560005 20.549164 486.42416
18.537781 20.38154 486.17889
19.121698 20.584717 486.03241
28.652697 20.429472 486.05847
29.635756 20.364906 486.2081
30.669247 20.415289 486.3653
31.315462 20.453928 486.46365
32.406155 20.273294 486.62967
33.503834 20.653692 486.79669
34.487293 20.406534 486.94632
42.511444 20.434572 486.85172
43.641254 20.555542 486.5683
44.736946 20.609045 486.29355
45.491154 20.349957 486.10431
15.463198 21.325659 486.95007
16.450653 21.675686 486.70239
17.385473 21.43433 486.46793
18.505625 21.306208 486.18695
19.231407 21.768469 486.00488
28.587585 21.40703 486.04855
30.447025 21.518066 486.33154
31.293037 21.606239 486.46027
32.50119 21.39678 486.64413
33.480942 21.401642 486.79321
34.47097 21.406969 486.94388
41.990913 21.844131 486.98227
42.525486 21.520824 486.84821
43.602406 21.469704 486.57803
44.468033 21.560871 486.36093
45.497398 21.388561 486.10275
15.737846 22.593155 486.8812
16.469616 22.479839 486.6976
17.775412 22.686115 486.37012
18.626373 22.221148 486.15665
19.15107 22.381859 486.02505
28.873009 22.464689 486.09201
29.443048 22.577082 486.17874
30.472322 22.514872 486.33542
31.639242 22.447466 486.51297
32.418816 22.567917 486.63156
33.731804 22.458038 486.83139
34.286354 22.37508 486.91574
41.960236 22.667223 486.98996
42.635128 22.548525 486.82071
43.31004 22.547279 486.65137
44.423618 22.501337 486.37207
45.44957 22.567627 486.11475
15.682996 23.35471 486.89493
16.506504 23.389959 486.68839
17.573391 23.550781 486.42078
18.615385 23.624691 486.15942
19.153402 23.569759 486.02448
28.615692 23.465672 486.05289
29.602587 23.484209 486.203
30.423157 23.56274 486.32785
31.354877 23.269108 486.46967
32.465805 23.381702 486.63873
33.387138 23.606253 486.77896
34.506824 23.572908 486.94931
41.967117 23.096046 486.98822
42.376476 23.569841 486.88553
43.489784 23.391378 486.60632
44.546093 23.422146 486.34134
45.420033 23.539995 486.12216
15.593294 24.453421 486.91742
16.401573 24.70694 486.71469
17.461384 24.469809 486.44891
18.335052 24.37015 486.22974
19.010147 24.437078 486.06042
28.55559 24.300482 486.0437
29.396025 24.504593 486.1716
30.44104 24.386219 486.3306
31.395012 24.516689 486.4758
32.495171 24.523262 486.64316
33.557415 24.461243 486.80484
34.467369 24.541723 486.9433
41.950462 24.596382 486.9924
42.563759 24.481546 486.83856
43.447201 24.521154 486.617
44.529282 24.407322 486.34558
45.399498 24.475235 486.12729
15.785174 25.43045 486.86932
16.479506 25.385647 486.69513
17.499041 25.473616 486.43939
18.652689 25.369493 486.15005
19.040915 25.815248 486.05267
28.733599 25.444796 486.0708
29.538607 25.533796 486.19333
30.314457 25.332809 486.31137
31.38394 25.533937 486.47415
32.649723 25.583618 486.66675
33.650761 25.548109 486.81903
34.550781 25.479374 486.95599
42.52652 25.543013 486.84793
43.514416 25.573133 486.60013
44.509605 25.456152 486.35049
45.590042 25.61886 486.0795
15.677922 26.625433 486.89621
16.591278 26.387066 486.66714
17.445137 26.636526 486.45291
18.622934 26.548435 486.15753
19.11478 26.224503 486.03415
28.620205 26.550137 486.05356
29.477615 26.468615 486.18399
30.331263 26.416174 486.3139
31.538321 26.436548 486.49759
32.316223 26.36702 486.61597
33.577538 26.580414 486.80795
34.470104 26.407629 486.94376
41.949066 26.868351 486.99277
42.366505 26.622665 486.88803
43.489334 26.527863 486.60641
44.521564 26.471903 486.3475
45.505032 26.385889 486.10086
15.588534 27.591381 486.91864
16.645599 27.401201 486.65344
17.631546 27.297001 486.40619
18.407166 27.411947 486.21164
19.124966 27.536242 486.03159
28.526243 27.525005 486.03922
29.43664 27.533434 486.17776
30.524685 27.447435 486.34335
31.646122 27.705496 486.51401
32.420166 27.42424 486.63184
33.475876 27.58979 486.79248
34.368023 27.534826 486.92822
41.996078 27.985558 486.98096
42.503895 27.51972 486.85367
43.490288 27.241529 486.60614
44.601406 27.511627 486.32745
45.378815 27.487658 486.13248
15.537588 28.470589 486.93143
16.416426 28.420984 486.71097
17.303837 28.499853 486.48834
18.497097 28.382458 486.18909
19.069798 28.823175 486.04544
28.651432 28.473925 486.05832
29.578114 28.527885 486.19931
30.299192 28.488531 486.30902
31.51973 28.360983 486.49478
32.475677 28.312149 486.64023
33.701305 28.529892 486.82672
34.599678 28.644836 486.96347
42.44791 28.536448 486.86761
43.414845 28.403416 486.62515
44.324413 28.601624 486.39694
45.420391 28.414597 486.12207
15.919174 29.398394 486.83569
16.425238 29.527754 486.70877
17.615229 29.403959 486.41028
18.506691 29.465918 486.18671
19.163988 29.295565 486.02182
28.691715 29.441126 486.06445
29.386305 29.628918 486.17014
30.600651 29.43211 486.35489
31.456509 29.442282 486.48514
32.41674 29.400343 486.63129
33.427845 29.633127 486.78513
34.317551 29.241318 486.9205
42.445766 29.442587 486.86826
43.45203 29.491869 486.61575
44.546253 29.497807 486.34128
45.456791 29.538963 486.11292
15.684505 30.472448 486.89456
16.621344 30.609041 486.65964
17.300972 30.602104 486.48911
18.357973 30.666164 486.22397
19.132845 30.729399 486.02963
28.569208 30.626608 486.04578
29.525496 30.287102 486.19128
30.551785 30.622881 486.34744
31.576918 30.373644 486.50348
32.576878 30.43972 486.65561
33.397751 30.604788 486.78058
34.564274 30.336693 486.95804
41.949249 30.443699 486.99271
42.316177 30.534985 486.90063
43.514137 30.562181 486.60019
44.642162 30.496571 486.31729
45.490841 30.505558 486.10437
15.591818 31.613674 486.91782
16.512047 31.406574 486.68698
17.546436 31.483673 486.42752
18.477657 31.47834 486.19397
19.083307 31.586969 486.04202
28.723331 31.607645 486.06927
29.406891 31.544397 486.17325
30.434258 31.458122 486.32959
31.38851 31.581287 486.47479
32.470901 31.46089 486.6395
33.397079 31.507946 486.7804
34.419216 31.488586 486.936
41.995846 31.445229 486.98102
42.407532 31.5026 486.87775
43.314903 31.529438 486.65021
44.648716 31.507219 486.31564
45.358143 31.440981 486.1377
15.517199 32.732468 486.93652
16.652561 32.448242 486.65176
17.560455 32.655354 486.42401
18.528107 32.471752 486.1813
19.137074 32.289093 486.02856
28.871275 32.552769 486.09177
29.3932 32.713768 486.1712
30.546635 32.351089 486.34668
31.508436 32.625484 486.49304
32.470253 32.405247 486.63943
33.461655 32.236778 486.79028
34.447395 32.477379 486.94028
42.485077 32.735882 486.85831
43.497269 32.326843 486.60443
44.50544 32.630356 486.35153
45.394341 32.417328 486.12857
15.57175 33.617573 486.92282
16.548742 33.476028 486.6778
17.53208 33.474072 486.43115
18.624456 33.478676 486.15714
19.020697 33.552925 486.05774
28.509426 33.420162 486.03668
29.522556 33.662697 486.19086
30.500027 33.536415 486.33957
31.475389 33.449203 486.48804
32.69038 33.568069 486.67288
33.532742 33.449387 486.80109
34.295441 33.587868 486.91714
42.612816 33.420185 486.82626
43.385265 33.525826 486.63251
44.506077 33.424122 486.35141
45.450096 33.579388 486.11462
15.68572 34.468979 486.89429
16.541842 34.478268 486.6795
17.426027 34.590054 486.45779
18.272062 34.525341 486.24551
19.081806 34.845528 486.04242
28.619085 34.508919 486.05338
29.559891 34.661396 486.19653
30.495394 34.499687 486.3389
31.53183 34.300285 486.49664
32.710049 34.41254 486.67587
33.58197 34.584152 486.80859
34.290722 34.656105 486.91647
41.930222 34.269688 486.99747
42.579975 34.375076 486.83453
43.409039 34.417477 486.62656
44.515224 34.707169 486.34912
45.523315 34.626999 486.09619
15.742863 35.470329 486.87991
16.401625 35.532364 486.71469
17.552885 35.531464 486.42587
18.621847 35.428505 486.15778
19.052917 35.69315 486.04965
28.634741 35.602375 486.05579
29.448736 35.351578 486.17963
30.622932 35.372036 486.35828
31.527113 35.723171 486.49591
32.54578 35.551392 486.65091
33.395191 35.347351 486.78015
34.575157 35.389973 486.95975
42.569687 35.606842 486.8371
43.677444 35.587173 486.55927
44.277534 35.438236 486.40869
45.485405 35.460808 486.10577
15.644483 36.464355 486.9046
16.588301 36.475163 486.66788
17.504957 36.579586 486.43796
18.540417 36.405647 486.17822
19.045883 36.430874 486.05145
28.661425 36.585541 486.05984
29.486351 36.544003 486.18533
30.534979 36.406719 486.34491
31.532267 36.253971 486.49673
32.687832 36.502136 486.67252
33.451019 36.485355 486.78867
34.342415 36.574909 486.92432
41.971111 36.178207 486.98721
42.414623 36.584126 486.87598
43.484837 36.528343 486.60757
44.556904 36.453655 486.33868
45.389484 36.49403 486.12979
15.669374 37.443134 486.89838
16.483215 37.54554 486.69421
17.282185 37.45882 486.49384
18.484488 37.50993 486.1922
19.246738 37.20882 486.00104
28.598143 37.785843 486.05017
29.595686 37.520721 486.20203
30.647337 37.428288 486.36203
31.665998 37.491913 486.51703
32.64114 37.531845 486.66544
33.484867 37.569302 486.79385
34.458706 37.660851 486.94199
42.524239 37.63726 486.84848
43.363327 37.542187 486.63797
44.36446 37.51144 486.3869
45.558212 37.436306 486.08746
15.657005 38.648235 486.90149
16.526829 38.502979 486.68329
17.585026 38.561134 486.41785
18.294151 38.445168 486.23999
19.058214 38.866211 486.04834
28.589956 38.537834 486.04892
29.642763 38.457714 486.20917
30.438498 38.573471 486.33023
31.415627 38.636745 486.47891
32.365452 38.406681 486.62347
33.597187 38.677269 486.81088
34.283653 38.316807 486.91537
42.618706 38.604202 486.8248
43.398003 38.62545 486.62933
44.483238 38.537918 486.35715
45.366592 38.42815 486.13556
15.612297 39.62077 486.91269
16.640734 39.648609 486.65472
17.534346 39.469353 486.43057
18.676685 39.369556 486.14404
19.171043 39.857933 486.02002
28.816645 39.345963 486.08344
29.517151 39.568607 486.19006
30.312241 39.505974 486.311
31.57329 39.693821 486.5029
32.708435 39.538528 486.67563
33.44595 39.436184 486.7879
34.233662 39.396801 486.90778
42.469429 39.360699 486.86224
43.403206 39.451656 486.62799
44.435211 39.497887 486.3692
45.278042 39.105858 486.15778
15.681786 40.493938 486.89523
16.499617 40.574516 486.69012
17.24777 40.408623 486.50244
18.293079 40.546741 486.24023
19.107998 40.25489 486.03586
28.49062 40.857933 486.03384
29.497404 40.320663 486.18701
30.805122 40.569389 486.38602
31.459185 40.399097 486.48553
32.522877 40.607178 486.64743
33.559097 40.533401 486.80508
34.398216 40.452068 486.9328
41.97345 40.192722 486.98663
42.528473 40.487949 486.84744
43.440666 40.461617 486.61865
44.212181 40.606018 486.42511
45.400539 40.524544 486.12701
15.671775 41.387821 486.89777
16.530617 41.471867 486.68231
17.539873 41.546993 486.42917
18.48987 41.534946 486.19089
19.093872 41.401936 486.0394
28.785583 41.581215 486.0787
29.633631 41.317081 486.20776
30.484297 41.463417 486.33719
31.419092 41.603004 486.47946
32.473064 41.499226 486.6398
33.45359 41.38242 486.78906
34.321411 41.409008 486.92111
42.452309 41.475769 486.86655
43.46125 41.427368 486.61343
44.529118 41.515217 486.34564
45.577557 41.473949 486.08261
15.664061 42.47253 486.89969
16.564238 42.703018 486.67389
17.409544 42.463867 486.46188
18.463459 42.557549 486.19754
28.735205 42.428734 486.07104
29.344128 42.580639 486.1637
30.55002 42.530907 486.3472
31.40682 42.414223 486.4776
32.548676 42.655628 486.65131
33.488472 42.405346 486.7944
34.328049 42.488823 486.92215
41.982483 42.398285 486.98438
42.524139 42.5868 486.84848
43.447239 42.556046 486.61691
44.511753 42.281532 486.34995
45.532436 42.482948 486.09402
15.642915 43.320854 486.90497
16.303644 43.629009 486.73926
17.563356 43.554871 486.42331
18.378817 43.373074 486.21872
19.111464 43.731998 486.03494
28.425541 43.400215 486.02393
29.445341 43.678192 486.17911
30.484062 43.523674 486.33713
31.311213 43.494072 486.46304
32.434952 43.521423 486.63406
33.570492 43.471981 486.80682
34.408714 43.538155 486.93439
41.999401 43.255638 486.98013
42.616253 43.476635 486.82538
43.453472 43.422485 486.61539
44.379601 43.539574 486.38309
45.417358 43.561924 486.1228
15.598285 44.497597 486.9162
16.525625 44.325321 486.68356
17.446798 44.327435 486.45248
18.580437 44.362537 486.16818
19.105789 44.415039 486.03638
28.584654 44.571293 486.04813
29.480408 44.346508 486.18445
30.6556 44.756866 486.36328
31.629913 44.609802 486.51154
32.454697 44.211559 486.63708
33.454746 44.358215 486.78922
34.496025 44.390736 486.94772
41.967175 44.014221 486.98822
42.481899 44.451611 486.8591
43.467167 44.476067 486.61194
44.563313 44.59388 486.33704
45.449608 44.470028 486.11475
15.666 45.518948 486.89917
16.374029 45.485905 486.72165
17.413631 45.519886 486.46085
18.666012 45.543858 486.1467
19.023705 45.18956 486.05698
28.274117 45.650139 486.00089
29.450377 45.512829 486.17984
30.654892 45.974842 486.36316
31.654667 45.339504 486.51532
32.532543 45.578552 486.64893
33.471474 45.615753 486.79178
34.462654 45.467735 486.94263
41.942501 45.51379 486.99438
42.509514 45.490246 486.85214
43.465588 45.38409 486.61237
44.443302 45.687046 486.36713
45.675694 45.419762 486.05801
15.756891 46.562618 486.8764
16.420753 46.689812 486.7099
17.549522 46.611557 486.42676
18.668505 46.641518 486.14612
19.050081 46.538731 486.05038
28.572456 46.651791 486.0463
29.563772 46.578773 486.19711
30.426947 46.496773 486.32852
31.656145 46.500877 486.51553
32.562416 46.585384 486.65344
33.239231 46.508236 486.75644
34.267349 46.351101 486.9129
41.926083 46.197411 486.9985
42.50235 46.338566 486.85397
43.63987 46.776947 486.56863
44.565647 46.410137 486.33646
45.202137 46.471542 486.17676
15.544739 47.51046 486.9296
16.46946 47.503914 486.69766
17.530416 47.587231 486.43155
18.554379 47.454296 486.17471
19.100372 47.458435 486.03778
28.655741 47.351295 486.05893
29.444439 47.488579 486.17892
30.445856 47.439663 486.33136
31.416437 47.586887 486.47903
32.54314 47.502819 486.65048
33.567188 47.551704 486.80634
34.286095 47.521408 486.91574
42.427601 47.445805 486.87274
43.542149 47.5117 486.59323
44.402355 47.555965 486.37738
45.397461 47.703529 486.12781
15.478625 48.538048 486.94623
16.516148 48.431221 486.68597
17.504704 48.555225 486.43799
18.471806 48.56181 486.1954
28.678152 48.319088 486.06238
29.681902 48.679108 486.21512
30.507843 48.578087 486.34082
31.700176 48.511482 486.52222
32.541939 48.588867 486.65033
33.497074 48.465034 486.79565
34.411877 48.479263 486.93488
41.970528 48.33279 486.98737
42.533684 48.307323 486.8461
43.374813 48.428715 486.63513
44.808117 48.562183 486.27563
45.400711 48.426525 486.12698
15.71701 49.393459 486.88638
16.30649 49.363609 486.73859
17.714281 49.397213 486.38544
18.653002 49.449371 486.14993
19.154915 49.506954 486.02411
28.634554 49.542149 486.05576
29.465183 49.605755 486.18213
30.567314 49.437828 486.34985
31.504436 49.499397 486.4924
32.498886 49.352856 486.6438
33.639664 49.485714 486.81735
34.329876 49.39817 486.92242
42.579437 49.314274 486.83466
43.555099 49.503269 486.5899
44.69804 49.312054 486.30322
45.465809 49.741055 486.11069
15.664942 50.614479 486.89948
16.426218 50.433273 486.70856
17.710684 50.41013 486.38632
18.451395 50.392242 486.2005
19.135208 50.367374 486.02905
28.581711 50.351814 486.04767
29.733183 50.596657 486.22293
30.397438 50.561577 486.32394
31.535435 50.498676 486.49716
32.642403 50.418888 486.66562
33.355556 50.557026 486.77414
34.23167 50.602913 486.90747
42.510307 50.621899 486.85199
43.522121 50.372997 486.59818
44.398418 50.483315 486.37839
45.613758 50.418713 486.07358
15.584587 51.518272 486.91965
16.628521 51.507874 486.65778
17.55065 51.597408 486.42639
18.645046 51.5 486.15201
19.237246 51.885807 486.00342
28.579489 51.555359 486.04736
29.556692 51.517288 486.19608
30.666739 51.61195 486.36499
31.476675 51.367645 486.48825
32.522404 51.42474 486.64737
33.635216 51.553844 486.81665
34.371956 51.611382 486.92877
42.423878 51.499615 486.87363
43.439495 51.625385 486.6189
44.459763 51.470734 486.36301
45.374851 51.271835 486.13351
15.664331 52.397636 486.89963
16.699631 52.499317 486.63992
17.528559 52.486557 486.43201
18.612196 52.469231 486.16019
19.086193 52.213387 486.04132
28.605125 52.56926 486.05127
29.570642 52.333241 486.19818
30.549053 52.438927 486.34708
31.749884 52.686359 486.52975
32.487122 52.354603 486.642
33.558292 52.362133 486.80502
34.526566 52.45089 486.95233
42.299854 52.441242 486.90469
43.527832 52.198891 486.59674
44.589054 52.561829 486.3306
45.517727 52.50703 486.09766
15.522649 53.598095 486.93512
16.495346 53.489113 486.69116
17.464325 53.425701 486.44809
18.445816 53.464615 486.20193
19.138569 53.518391 486.02817
28.710266 53.517517 486.06726
29.463417 53.530094 486.18188
30.512064 53.282429 486.34146
31.336504 53.534058 486.46686
32.408539 53.462097 486.63004
33.457916 53.547554 486.7897
34.323147 53.439251 486.92139
42.631004 53.590359 486.82175
43.507145 53.473316 486.60196
44.449177 53.383137 486.36563
45.578728 53.521725 486.08234
15.780902 54.043804 486.87039
16.361027 54.460979 486.72485
17.568501 54.350407 486.422
18.537094 54.596615 486.17905
19.025318 54.574234 486.05658
28.567055 54.614166 486.0455
29.572519 54.333477 486.19843
30.471809 54.601437 486.3353
31.403605 54.439163 486.47711
32.47385 54.586788 486.63998
33.49247 54.572731 486.79495
34.42823 54.538776 486.93738
42.488884 54.68103 486.85733
43.517956 54.5196 486.59921
44.531166 54.474541 486.34512
18.429108 55.587063 486.20615
19.073961 55.499489 486.04437
28.725525 55.49308 486.06958
29.496685 55.535938 486.18692
30.587725 55.382488 486.35294
31.232248 55.614407 486.45105
32.605366 55.629517 486.66
33.470547 55.481098 486.79166
34.412395 55.51823 486.93494
42.568867 55.419685 486.83731
28.693802 56.335285 486.06476
29.50655 56.446632 486.18842
30.494431 56.643982 486.33878
31.31897 56.603745 486.4642
32.388367 56.429268 486.62695
33.494286 56.546562 486.79526
34.351402 56.49049 486.92566
28.626389 57.419769 486.05447
29.322083 57.663605 486.16037
30.491144 57.443165 486.33823
31.304844 57.536125 486.4621
32.631943 57.490295 486.66406
33.65266 57.453766 486.81934
34.231457 57.432789 486.90741
29.622509 58.432835 486.20605
31.274412 58.391727 486.4574
34.900879 2.6730433 487.00928
35.492947 2.6284497 487.0994
36.503735 2.3815176 487.2532
34.841228 3.3261411 487.00021
35.409271 3.5353534 487.08667
36.496185 3.3879225 487.25204
37.584881 3.4874611 487.41772
38.550938 3.4730439 487.56473
39.452297 3.5611808 487.60995
35.50943 4.5452676 487.1019
36.537533 4.6870584 487.25833
37.579739 4.5806985 487.41693
38.50111 4.5619502 487.55713
39.448792 4.4818473 487.60736
40.56628 4.3623357 487.33963
41.573872 4.5942473 487.08685
34.946064 5.1574659 487.01617
35.340633 5.4964566 487.0762
36.446873 5.4836044 487.24457
37.529766 5.4406981 487.40933
38.32885 5.571866 487.53091
39.48238 5.4401631 487.60361
40.544189 5.5597639 487.34509
41.420532 5.3929906 487.12531
14.520776 6.5879245 487.18646
15.137835 6.33284 487.03171
34.882652 6.5940514 487.00653
35.465481 6.4214349 487.09521
36.375927 6.4657135 487.23376
37.397114 6.5179219 487.38913
38.371628 6.5978146 487.53745
39.430622 6.6399632 487.60165
40.450489 6.6812248 487.36862
41.59565 6.5881491 487.08139
13.434973 7.4936218 487.4588
14.452401 7.5066257 487.20358
35.496891 7.5119882 487.09995
36.392147 7.4276528 487.23624
37.462727 7.46803 487.39917
38.436146 7.4164658 487.54721
39.393269 7.3431921 487.604
40.632057 7.3532805 487.32309
41.371716 7.2422776 487.13757
11.65368 8.3701057 487.90564
12.42377 8.2886848 487.71243
13.464841 8.547183 487.45132
14.549397 8.5436668 487.17932
15.067198 8.2780895 487.04941
34.851093 8.1234388 487.00171
35.53154 8.4479351 487.10529
36.602764 8.5884027 487.26822
37.491066 8.4518318 487.40344
38.428017 8.5809965 487.54605
39.706387 8.3279247 487.5553
40.560833 8.5772953 487.341
41.318192 8.4511223 487.15097
11.670867 9.6545115 487.90128
12.56019 9.4917269 487.67822
13.427203 9.4580564 487.46078
14.636683 9.685339 487.15741
35.647942 9.5637455 487.12299
36.653996 9.3774433 487.27606
37.467529 9.3705254 487.39984
38.246132 9.6956768 487.51837
39.615204 9.3941565 487.56793
40.525024 9.5453758 487.34991
41.53067 9.5041609 487.09769
11.718987 10.339012 487.88919
12.466782 10.483932 487.70166
13.540953 10.468383 487.43225
14.533114 10.504045 487.18338
35.737423 10.417596 487.13657
36.509518 10.702551 487.25409
37.332939 10.446672 487.37939
38.335728 10.646626 487.53195
39.597378 10.514184 487.5809
40.455997 10.558048 487.36725
41.648727 10.543296 487.06812
11.659492 11.523168 487.90414
12.534332 11.556124 487.68472
13.421394 11.59421 487.46222
14.569595 11.28755 487.17419
15.178212 11.510223 487.02155
34.869957 11.329937 487.00455
35.390461 11.44707 487.0838
36.515156 11.524209 487.25497
37.334908 11.654693 487.3797
38.679447 11.547968 487.58432
39.505074 11.616708 487.59769
40.421871 11.653974 487.37582
41.542732 11.598227 487.09473
11.528488 12.591416 487.93701
12.455583 12.221603 487.70447
13.434268 12.528004 487.45901
14.588264 12.428934 487.16956
15.154587 12.311272 487.0275
34.963913 12.573775 487.01889
35.291866 12.460261 487.06882
36.339123 12.425529 487.22818
37.409229 12.551198 487.39099
38.575546 12.646527 487.56845
39.569725 12.454901 487.58746
40.457718 12.547804 487.36682
41.381767 12.393278 487.13507
11.692088 13.751811 487.896
12.423587 13.566216 487.71249
13.541353 13.46662 487.43213
14.449885 13.654068 487.20422
15.173507 13.833691 487.02274
34.986694 13.945837 487.02234
35.585857 13.498996 487.11353
36.472332 13.570999 487.24841
37.327599 13.687765 487.37857
38.446003 13.563265 487.54877
39.445103 13.404737 487.60046
40.641502 13.252987 487.32074
41.376286 13.347832 487.13647
11.627835 14.591049 487.91211
12.671397 14.688978 487.65033
13.659771 14.398488 487.40237
14.570291 14.671631 487.17401
34.953129 14.603068 487.01724
35.529716 14.4023 487.10498
36.514465 14.365403 487.25482
37.38237 14.320793 487.3869
38.609646 14.392815 487.57364
39.507027 14.453932 487.59952
40.577316 14.44192 487.33679
41.380798 14.550673 487.13525
11.653489 15.502365 487.90564
12.431243 15.680077 487.71057
13.416733 15.635352 487.46338
14.621943 15.630064 487.1611
15.074832 15.298763 487.04749
34.879807 15.801105 487.00607
35.543583 15.386359 487.10709
36.517834 15.434699 487.25534
37.516167 15.466022 487.40726
38.312359 15.412707 487.52841
39.501339 15.608407 487.60095
40.668526 15.581144 487.31396
41.822662 15.561824 487.02444
11.785129 16.308096 487.87265
12.581525 16.435902 487.67285
13.48443 16.408428 487.44644
14.448174 16.382959 487.20468
15.129211 16.511547 487.03384
34.938095 16.190426 487.01495
35.472641 16.523853 487.09631
36.485023 16.577415 487.25037
37.437389 16.724464 487.39529
38.474648 16.489265 487.55313
39.725216 16.423471 487.54825
40.505077 16.389616 487.35495
41.430489 16.500864 487.1228
11.588717 17.626148 487.92194
12.574914 17.564362 487.67456
13.467231 17.320683 487.45074
14.470344 17.529926 487.1991
15.244118 17.36013 487.005
34.966911 17.083569 487.01935
35.567051 17.668587 487.11066
36.440033 17.671875 487.2435
37.480659 17.568113 487.40186
38.358669 17.359962 487.53549
39.49094 17.335249 487.59204
40.582848 17.463406 487.33545
41.328808 17.387896 487.14835
11.534767 18.590816 487.93542
12.395197 18.299776 487.71957
13.44436 18.464909 487.45648
14.510271 18.42552 487.18909
15.156896 18.174921 487.02689
35.551514 18.455637 487.10831
36.540386 18.561686 487.25882
37.657513 18.682722 487.42877
38.508289 18.453321 487.55823
39.416252 18.445211 487.6145
40.530766 18.462137 487.34851
41.505699 18.484646 487.10394
11.674381 19.43713 487.90045
12.50958 19.199488 487.69092
13.465619 19.630133 487.45114
14.500173 19.417933 487.19162
15.129166 19.423555 487.03384
35.486816 19.478506 487.09845
36.47422 19.51325 487.24869
37.454182 19.426327 487.39786
38.482624 19.484667 487.55435
39.455311 19.459089 487.60318
40.357128 19.583927 487.39206
41.188129 19.380083 487.18359
11.526871 20.371021 487.93741
12.686516 20.462759 487.64658
13.323036 20.623491 487.48688
14.453624 20.609112 487.20331
15.215011 20.599325 487.01233
34.862247 20.087591 487.00342
35.654503 20.409882 487.12396
36.442486 20.717987 487.2439
37.364334 20.493975 487.38416
38.359062 20.70528 487.53555
39.529404 20.577869 487.58914
40.580379 20.481987 487.33603
41.573639 20.553995 487.08691
11.643666 21.465904 487.90811
12.422952 21.603771 487.71268
13.624597 21.524742 487.41125
14.450129 21.547827 487.20416
15.099069 21.582956 487.04141
34.922298 21.591745 487.01254
35.557812 21.463745 487.10925
36.410122 21.518982 487.23895
37.579319 21.579744 487.41684
38.629143 21.537706 487.57666
39.391422 21.377066 487.61133
40.363216 21.706062 487.39053
41.462009 21.578339 487.1149
11.562742 22.548283 487.92841
12.650001 22.562876 487.65567
13.459416 22.492838 487.45267
14.514841 22.384571 487.18793
15.179828 22.399714 487.02115
34.928001 22.252882 487.01343
35.397629 22.575121 487.08487
36.445709 22.400661 487.24442
37.453999 22.409012 487.3978
38.512405 22.497143 487.55887
39.506237 22.261007 487.59274
40.442406 22.466492 487.37064
41.372505 22.587532 487.13733
11.683989 23.262259 487.89801
12.641442 23.463104 487.65784
13.605753 23.536713 487.41595
14.54566 23.274221 487.18024
15.090791 23.106836 487.04349
34.90218 23.323067 487.00949
35.377426 23.45715 487.08182
36.476261 23.581329 487.24902
37.387428 23.542717 487.3877
38.661991 23.610128 487.58163
39.513004 23.555197 487.58005
40.367767 23.489584 487.3894
41.480568 23.991562 487.11026
11.717369 24.47298 487.88965
12.537562 24.527411 487.68393
13.484329 24.459614 487.44635
14.580444 24.532097 487.17151
15.221068 24.712059 487.0108
34.952126 24.345284 487.01709
35.570023 24.484652 487.11111
36.456799 24.495516 487.24606
37.398727 24.67363 487.38937
38.342327 24.369877 487.53296
39.54826 24.614111 487.58743
40.552864 24.40406 487.34293
41.472534 24.32548 487.11227
11.625078 25.482594 487.91278
12.335445 25.606888 487.73456
13.411499 25.657602 487.46475
14.50294 25.51878 487.19095
15.097948 25.36388 487.04169
34.902718 25.179392 487.00958
35.510391 25.455225 487.10202
