# .PCD v0.7 - Point Cloud Data file format
VERSION 0.7
FIELDS x y z
SIZE 4 4 4
TYPE F F F
COUNT 1 1 1
WIDTH 111
HEIGHT 1
VIEWPOINT 0 0 0 1 0 0 0
POINTS 111
DATA ascii
47.589417 54.167633 470.59827
46.715679 54.77943 471.37137
46.148697 55.176437 472.6041
45.420223 55.686516 473.3382
44.971081 55.994247 474.90927
44.480259 56.223122 474.54602
42.442688 57.173252 477.4299
40.927879 57.879623 479.75418
40.298061 58.156677 480.40747
39.553432 58.380264 481.47708
38.608829 58.633373 483.51285
36.495506 59.199631 486.52368
35.567799 59.442688 487.44412
33.571686 59.687511 488.48761
31.649185 59.855713 489.55826
30.486 59.957485 490.543
28.563852 59.874355 491.33621
24.504122 59.46748 492.58081
25.617273 59.616562 492.53467
26.585098 59.701229 492.54391
27.390148 59.771667 492.32715
19.736891 58.17387 493.56055
20.433594 58.376785 493.6929
21.48996 58.65984 493.52612
22.815062 59.0149 493.11465
10.933377 53.133278 494.97412
11.439324 53.487549 494.45779
12.102102 53.95163 494.72186
13.262258 54.763981 494.47073
14.543461 55.661087 494.50229
15.491676 56.210033 494.42111
16.450584 56.657181 494.35117
47.927536 52.870621 468.57214
47.88546 52.84317 469.41806
48.441303 52.69289 469.45651
46.646233 53.765713 470.5874
46.659554 53.785126 471.40671
46.109798 54.094051 471.65472
45.538166 54.523144 472.45767
44.850964 54.907104 473.43253
44.839619 54.91539 474.0498
43.633034 55.75769 474.59653
44.436802 55.140026 474.42465
43.527218 55.641056 475.3306
42.792233 55.991859 476.69278
43.369171 55.781403 476.4133
41.508743 56.632267 478.57523
40.753349 56.898926 479.36877
41.40004 56.704647 479.28067
40.71825 56.965687 480.33078
39.543247 57.568775 480.58011
40.407398 57.091228 480.55023
38.671837 57.820019 481.8718
39.453796 57.445374 481.3696
38.488712 57.786263 482.62115
37.814728 57.908386 483.65353
38.40398 57.775421 483.51059
37.499748 57.974117 484.51047
38.175392 57.905182 484.29153
36.821075 58.438568 484.36758
37.184261 58.087597 484.43835
36.504501 58.308685 486.46951
33.778767 58.852367 487.76028
34.540016 58.741833 487.39441
35.520054 58.512814 487.49509
32.522724 58.930256 488.67676
33.546711 58.809315 488.66373
31.45632 58.964771 489.68948
32.523426 58.921772 489.39542
31.331339 59.078533 489.29117
29.641594 58.992756 490.73474
30.48761 58.981342 490.31128
31.121878 58.977341 490.02612
30.686152 59.091686 490.75278
27.534491 58.95295 491.72311
28.562654 58.958019 491.50854
29.357952 58.97715 491.01746
28.67507 59.020157 491.6066
21.826206 57.937336 492.8869
24.417633 58.608452 492.43881
25.480568 58.751869 492.45389
26.622797 58.832092 492.69135
27.43771 58.932407 492.51819
28.003347 58.925831 492.06265
15.520256 55.44075 493.60757
16.313084 55.759121 493.62329
17.593979 56.34359 493.59186
18.505859 56.766201 493.45755
19.227333 56.922222 493.75467
19.631084 57.167297 493.28894
20.493904 57.462547 493.5723
21.495752 57.755783 493.41748
22.407497 57.990925 493.46231
23.478806 58.304718 493.39923
25.348566 58.682941 493.21591
26.240303 58.917301 493.30829
10.987206 51.919987 494.94907
11.579181 52.57996 494.42947
12.172405 52.865868 494.80316
12.666728 53.282993 494.63358
13.826777 54.117218 494.49438
14.430785 54.472866 494.44241
15.122633 54.895668 494.18225
15.651762 55.25153 494.6235
16.448473 55.705059 494.44791
18.397963 56.753777 494.41934
19.137804 56.908886 494.05399
21.268848 57.804893 494.07419
11.3592 52.309998 495.29825
12.471717 53.329086 495.34656
13.27591 53.909172 495.27808
