# .PCD v0.7 - Point Cloud Data file format
VERSION 0.7
FIELDS x y z
SIZE 4 4 4
TYPE F F F
COUNT 1 1 1
WIDTH 144
HEIGHT 1
VIEWPOINT 0 0 0 1 0 0 0
POINTS 144
DATA ascii
378.07248 1753.5416 1711.2819
447.65182 1572.4106 1730.9717
447.70081 1572.9862 1730.3043
370.71997 1183.443 2570
369.12885 1185.2635 2570
370.48514 1186.6925 2570
361.66699 759.67523 1487.1738
366.46436 755.85175 1492.9637
375.44971 749.30627 1499.5042
375.41138 749.11633 1500.5853
382.26501 744.12488 1504.8054
380.47418 745.56738 1503.5636
380.91473 744.30487 1508.0817
386.73755 738.43579 1514.7878
418.34369 698.65112 1522.6615
404.20801 718.79895 1524.9341
405.16034 717.66052 1525.0178
402.94287 721.09277 1526.0361
430.30334 674.05536 1534.3492
433.05444 666.97491 1542.4543
432.97119 667.2901 1543.7406
432.82684 667.99176 1543.7544
435.96777 659.61261 1549.5192
435.91058 659.07111 1552.1655
433.46136 666.03351 1564.1821
382.99493 1743.062 1584.3424
377.99249 1747.2888 1584.6857
432.89764 667.55798 1586.5762
430.91779 672.25647 1586.5586
381.38782 1744.177 1586.8162
441.4588 657.21014 1589.223
432.02502 669.20435 1587.632
431.66437 670.73462 1588.1514
432.02246 670.10425 1588.8727
437.95227 654.66827 1592.3278
437.98523 656.50934 1590.7462
432.66425 668.99707 1590.0634
433.41064 671.42041 1590.9832
385.66077 1740.4543 1592.2007
437.68494 654.82959 1592.5564
440.19226 641.78406 1602.8259
398.17194 1726.6136 1604.6917
403.19305 1721.4536 1605.7407
401.02258 1723.1924 1606.4253
442.00458 633.6842 1613.4685
409.44562 1712.1685 1630.0916
408.55975 1713.3063 1631.3798
443.26141 625.85248 1634.1566
444.30286 619.29492 1653.4209
444.28381 616.60205 1655.5873
397.88281 1727.095 1656.3459
396.96094 1728.8849 1657.254
444.38159 615.52045 1658.276
392.44287 1733.1775 1670.3536
391.30493 1734.337 1674.6638
445.11932 598.14111 1677.0144
444.70294 601.271 1678.8879
444.51416 593.53857 1682.1761
385.53052 1741.3999 1681.3668
384.09845 1742.6018 1684.2804
384.71997 1740.8815 1685.1681
442.10791 568.7019 1697.6399
379.12506 1746.0972 1698.0635
444.9126 1596.1426 1701.6074
376.18628 1748.6377 1703.9507
373.57465 1750.7679 1707.7661
435.17419 536.86292 1711.5244
435.47998 539.45813 1711.4363
370.59692 1753.3164 1711.3112
434.79865 539.08545 1712.9255
436.27295 542.6853 1713.1348
375.38361 1749.3605 1714.0312
367.63257 1759.4299 1714.0315
433.65033 535.27393 1715.86
435.276 538.40808 1715.974
376.78741 1748.2855 1715.6082
377.39124 1747.8199 1716.0408
386.55225 1739.2075 1718.6191
387.28168 1738.6595 1718.0995
423.04742 510.47348 1729.4801
421.16913 506.48663 1731.9233
449.10999 1587.5881 1730.8578
442.8186 1571.951 1733.3506
442.91046 1572.7874 1733.3485
414.71753 1704.2892 1736.9154
416.81445 1700.7697 1739.2225
417.67175 1699.3691 1740.2478
416.5329 1701.9856 1741.2562
416.18835 1704.5421 1741.5872
441.56464 1561.5398 1744.3405
417.99658 501.7196 1745.6782
418.52063 502.5665 1745.1359
440.92889 1560.7794 1747.022
415.98883 497.5556 1750.8881
418.34155 501.57776 1750.8206
441.1936 1560.2513 1754.2731
416.05151 498.49933 1756.2828
414.33417 495.76239 1758.7297
415.51978 497.74628 1758.1482
413.6106 494.23544 1768.8546
411.51959 491.55142 1771.3652
434.13538 1536.704 1783.2246
426.22998 1684.8574 1785.2671
423.95416 1687.4116 1787.0057
403.67383 478.87 1796.5096
403.98175 480.79712 1799.8472
420.41693 1694.5067 1802.3322
418.50098 1698.2311 1803.7683
400.70404 476.44635 1806.0121
418.24872 1698.2296 1808.3245
418.6972 1698.4779 1811.5398
397.48126 473.24768 1817.0354
399.30103 475.10638 1816.4722
396.94788 472.58481 1821.8844
433.64288 1534.7552 1822.4545
396.35779 471.62576 1825.4143
412.12604 1708.1953 1826.7181
393.58551 468.73804 1829.0795
395.1925 470.17825 1829.219
392.66882 467.77451 1831.8134
435.77716 1540.4264 1830.391
393.93549 468.62854 1833.3611
395.92401 469.10809 1833.8694
390.41852 465.15262 1837.4304
389.67786 464.16782 1838.5516
381.28577 455.65979 1859.4333
418.04327 1700.7465 1859.837
418.01227 1699.5176 1864.5312
417.47223 1700.1357 1863.7738
417.44537 1699.953 1865.0022
377.74036 452.77435 1870.2834
370.94556 447.04205 1882.4418
420.79926 1694.0464 1881.7942
373.03027 448.33932 1884.3583
420.9931 1693.7812 1884.3005
376.84888 445.44446 1890.0432
379.7804 447.93457 1892.6932
423.89331 1687.6661 1896.8827
364.71106 442.26605 1897.8281
349.74799 431.00839 1917.3251
350.02466 432.17398 1918.5698
396.75037 1147.4775 2570
395.68835 1154.7389 2570
391.78784 1156.6218 2570
