# .PCD v0.7 - Point Cloud Data file format
VERSION 0.7
FIELDS x y z
SIZE 4 4 4
TYPE F F F
COUNT 1 1 1
WIDTH 1612
HEIGHT 1
VIEWPOINT 0 0 0 1 0 0 0
POINTS 1612
DATA ascii
203.3699 1793.8674 284.01901
212.80408 1796.3689 280.24475
233.95389 1798.5962 282.6723
293.07733 1794.7249 280.41821
129.95953 1759.298 292.43069
139.83435 1766.2118 290.87656
356.87296 1768.3927 286.66577
146.8313 1771.0969 288.28629
156.63567 1776.4083 292.21945
345.04828 1775.5143 288.14072
170.61479 1782.9246 285.80023
173.57176 1784.3036 286.41721
326.86618 1783.9926 288.00177
330.20462 1782.4359 287.42798
340.73175 1777.527 290.9317
175.5009 1785.2053 292.45172
307.28699 1790.9174 290.93979
198.82246 1792.6498 286.09818
207.0079 1794.8427 285.01547
212.85326 1796.3806 291.37891
235.60234 1798.7405 287.54785
244.83263 1799.5519 288.64639
251.20898 1799.8944 287.89648
277.82135 1797.5659 286.99515
287.47214 1796.2267 286.61005
298.44785 1793.2858 289.138
365.81708 1762.1299 298.02527
371.02716 1758.4817 295.88379
137.45824 1764.5491 293.3858
142.89449 1768.3569 296.29523
341.33517 1777.2456 294.54193
349.13818 1773.5488 295.02985
161.66721 1778.7549 293.26434
171.9295 1783.5414 296.15842
328.53583 1783.2141 297.38943
332.86014 1781.1976 296.83194
338.85013 1778.4044 294.43378
306.83792 1791.0377 292.77414
217.82455 1797.1851 296.17276
239.63136 1799.0929 294.36295
274.86548 1797.8247 297.86523
123.75884 1754.962 306.03784
366.90616 1761.3673 301.98404
373.1915 1756.9662 303.13849
365.16949 1762.5834 306.03815
156.13403 1776.1782 302.44519
157.73929 1776.9263 301.33694
161.7579 1778.8014 304.27356
173.61194 1784.3289 304.22693
328.05466 1783.4384 301.15652
335.41022 1780.0085 301.21857
185.93588 1789.202 301.51483
194.22868 1791.4249 304.47723
303.04245 1792.0547 303.12296
223.04033 1797.6414 303.49808
248.21681 1799.8864 300.70465
262.50574 1798.9059 303.97784
292.43423 1794.8971 304.45212
121.10276 1752.8909 308.85071
378.9234 1752.843 312.35931
124.95943 1755.8052 311.7149
130.3645 1759.5894 310.42621
144.19568 1769.2747 311.94519
360.7576 1765.6726 310.59958
157.14735 1776.6553 314.76492
348.93939 1773.5228 309.88391
327.72473 1783.5923 310.66504
331.19336 1781.9749 313.18512
187.83339 1789.7147 314.4693
195.6198 1791.8004 312.41522
320.9054 1786.7722 310.73346
213.69557 1796.5831 310.74432
222.00371 1797.5507 311.21582
225.15056 1797.8259 310.53131
238.63158 1799.0054 312.17395
257.74463 1799.3225 312.76208
273.60617 1797.9348 310.05115
279.38617 1797.4717 310.77783
288.06244 1796.0685 313.24136
297.4696 1793.5479 313.00525
123.54732 1754.8201 320.24011
139.099 1765.7086 318.1615
361.48755 1765.1615 316.75229
167.51236 1781.4902 319.39783
173.47769 1784.2716 318.10071
302.30142 1792.2533 319.02109
309.65857 1790.282 319.05481
320.46552 1786.9773 317.48038
324.3638 1785.1594 320.96011
200.67657 1793.1567 316.29095
219.98839 1797.3744 318.17331
238.6763 1799.0094 321.08585
246.60709 1799.7838 315.52045
261.10474 1799.0286 319.41739
262.92044 1798.8696 320.42499
275.1564 1797.7992 316.00525
279.25031 1797.4459 315.86682
296.72156 1793.7484 317.241
378.0874 1753.5481 323.36853
366.06812 1761.9541 326.01163
138.78282 1765.4912 327.54868
355.34677 1769.4613 324.73322
173.5451 1784.3046 322.56824
182.96245 1788.3003 326.4213
190.49553 1790.4331 329.74481
324.39288 1785.146 323.28809
232.44521 1798.4642 324.62881
234.38286 1798.6338 324.61523
242.72766 1799.3639 324.112
272.42822 1798.0378 326.26495
300.56146 1792.7195 325.26895
129.80812 1759.2081 330.10037
146.6279 1770.9856 330.25754
150.11613 1773.2679 330.59149
163.96791 1779.8441 336.83701
166.91507 1781.2167 332.36511
182.12201 1788.1147 335.99463
301.49167 1792.4702 330.91071
312.06766 1789.6573 334.23712
215.58575 1796.9891 334.86075
220.6465 1797.4319 337.01276
230.33086 1798.2792 331.20859
254.84932 1799.5759 330.979
264.50482 1798.7311 336.91241
270.66324 1798.1923 331.73074
284.30359 1797.0079 335.24951
292.00201 1795.0129 335.64188
369.8739 1759.2893 340.56973
375.87991 1755.1407 339.04492
350.47772 1772.8706 340.10635
162.81516 1779.3087 342.72824
167.77303 1781.6187 337.62943
189.47478 1790.1633 340.78851
304.61026 1791.6346 341.08548
205.36357 1794.4204 340.0119
235.6377 1798.7435 341.61975
245.60754 1799.72 344.31653
249.464 1799.9659 338.45187
296.99863 1793.6741 342.94617
116.15576 1748.1008 348.35474
125.21471 1755.9988 346.53458
356.25821 1768.8231 351.55164
361.62222 1765.0671 345.88742
148.4249 1772.1727 347.6835
152.97919 1774.7247 349.56546
160.88062 1778.4094 350.55588
327.14551 1783.8624 350.30536
338.13422 1778.7383 347.1828
200.63591 1793.1554 345.1235
214.17928 1796.6993 349.54208
241.25069 1799.2346 348.47476
268.50964 1798.3807 347.03241
275.00223 1797.8126 352.27344
281.7374 1797.2875 346.91745
125.5867 1756.2642 357.94739
373.21683 1756.9485 353.20508
375.71371 1755.2607 353.93988
363.08005 1764.0464 356.4679
150.43988 1773.4429 355.84488
344.22919 1775.8961 355.55142
350.0788 1773.15 352.54019
333.05707 1781.1057 355.24634
339.36353 1778.165 359.77682
178.41563 1786.5637 355.75601
183.50864 1788.5264 354.78308
193.35707 1791.2084 355.33774
304.18649 1791.7482 359.33347
212.5162 1796.2997 358.26495
222.14284 1797.5629 357.71542
258.2486 1799.2784 354.78705
266.55222 1798.552 359.88361
275.12146 1797.8022 358.27057
285.92264 1796.6418 355.2785
294.59879 1794.3171 356.46396
300.31311 1792.786 355.51111
118.48235 1750.4346 362.2804
382.38156 1749.3848 361.75195
134.10129 1762.228 362.17154
347.68649 1774.3308 360.73206
162.42256 1779.1337 364.19739
169.72275 1782.5369 361.66147
331.86749 1781.6604 361.38205
196.52673 1792.061 365.28098
320.30511 1787.0521 366.07068
324.40988 1785.1379 366.94016
255.96899 1799.4779 362.73203
370.16418 1759.0859 372.42429
137.85042 1764.8579 373.08237
344.53024 1775.7921 369.10815
347.25357 1774.5415 370.18076
161.43451 1778.6753 370.53778
189.72728 1790.2417 372.91321
312.41492 1789.5663 369.91278
317.34543 1788.1311 370.79224
200.77301 1793.1998 368.59949
202.56194 1793.6809 373.69678
230.97531 1798.3356 369.9364
252.38538 1799.7914 372.14734
372.73169 1757.3357 380.29309
142.87201 1768.3781 382.32693
148.16412 1772.0018 381.18381
157.79274 1776.9808 380.83475
337.38062 1779.0896 376.11719
192.92314 1791.0997 378.38943
196.58002 1792.0798 378.77515
309.91953 1790.2119 380.01465
217.92818 1797.1941 375.12744
226.34677 1797.9307 378.23248
235.51343 1798.7327 380.01691
246.58475 1799.7823 378.90091
253.71252 1799.6753 376.17285
259.22617 1799.193 379.78265
271.62445 1798.1082 378.4903
119.57998 1751.4655 385.22348
129.75525 1759.1953 386.53693
138.91862 1765.613 389.6676
355.69186 1769.2197 387.3772
360.35654 1765.9534 383.53125
148.4894 1772.2151 382.82306
157.32532 1776.7643 384.26477
343.89734 1776.0553 384.6825
327.53146 1783.6825 384.99579
314.71585 1789.0018 389.82809
207.09406 1794.8997 386.79236
212.29951 1796.2476 385.85703
235.28467 1798.7126 389.79703
247.05385 1799.8123 388.58331
296.46268 1793.8176 387.06665
123.06387 1754.4867 395.81812
127.90312 1757.9003 390.8512
371.68127 1758.0717 396.70215
375.86484 1755.1516 394.91489
161.2486 1778.5959 390.21967
333.30804 1780.9888 393.42493
191.34392 1790.6814 392.55618
313.81198 1789.2623 395.93048
219.79916 1797.3578 394.45767
241.14415 1799.2253 394.552
264.53558 1798.7284 395.77698
284.5007 1796.9865 392.21243
119.79166 1751.6636 400.35541
120.19961 1752.0455 398.68228
133.48213 1761.8121 403.36075
364.04712 1763.3693 399.89893
156.5681 1776.4164 398.14557
347.98041 1774.1879 402.76062
161.19534 1778.5746 399.66089
335.12286 1780.1426 402.17526
307.57788 1790.8395 398.65112
319.06717 1787.6294 397.59842
235.53809 1798.7349 401.87799
276.48538 1797.6829 398.52191
120.2971 1752.1367 409.96167
356.89578 1768.3767 411.00925
363.23935 1763.9349 407.29294
153.87128 1775.1062 407.8598
351.62207 1772.0695 407.84634
158.99835 1777.5527 406.62088
167.01404 1781.2913 408.77698
336.353 1779.5688 407.98056
180.27884 1787.3693 411.84634
194.93237 1791.6494 411.78708
213.34158 1796.498 409.91925
245.34811 1799.7035 410.47632
258.53122 1799.2537 411.8649
265.32019 1798.6598 406.20444
281.54034 1797.309 405.24847
118.37798 1750.3403 414.98709
121.45282 1753.217 419.4982
370.06033 1759.1587 419.90784
142.97374 1768.4631 414.50656
356.64368 1768.5532 416.8905
360.3895 1765.9303 412.63177
157.1048 1776.6746 419.61877
351.86127 1771.902 415.51645
169.75841 1782.5742 417.48053
336.92319 1779.3031 412.84265
339.42932 1778.1344 413.19299
181.94452 1788.0378 416.6228
195.08757 1791.6913 412.83105
309.5632 1790.3075 413.89383
316.0499 1788.6172 414.00601
208.04141 1795.1633 416.52588
219.09331 1797.296 415.04132
245.75894 1799.7296 418.21609
257.09708 1799.3792 415.93094
268.00653 1798.4247 415.38681
380.12204 1751.553 422.75266
371.72906 1758.0205 423.0365
147.20618 1771.374 424.58636
341.92047 1776.9728 423.63245
167.52625 1781.5347 421.00958
174.15576 1784.6274 424.78061
330.64548 1782.2303 422.77805
194.40363 1791.5128 427.47403
208.72536 1795.349 423.52274
222.93646 1797.6323 424.76904
234.74165 1798.6652 420.89886
291.64053 1795.1097 426.55615
122.59714 1754.1189 431.34232
365.36887 1762.4437 427.55136
355.73508 1769.1895 433.51007
149.28902 1772.7391 431.01849
168.98088 1782.2173 432.38855
337.7757 1778.9054 428.27039
188.97586 1790.0605 433.6879
196.21829 1792.0001 430.53088
213.46579 1796.5139 433.88187
220.40446 1797.4108 432.57196
237.4852 1798.9052 432.2395
253.07205 1799.7313 434.02725
258.5307 1799.2538 431.71713
300.91937 1792.6235 434.2908
126.11543 1756.6683 437.00598
373.27505 1757.0203 441.71329
358.22089 1767.4489 438.80185
149.13858 1772.6406 438.25085
348.13513 1774.1125 438.04846
171.92947 1783.5952 440.30298
186.77081 1789.4702 435.25427
189.14427 1790.1075 439.26422
319.41595 1787.4667 441.47015
199.68658 1792.9319 437.97607
203.95436 1794.0753 437.73807
212.51955 1796.3004 437.52634
239.94917 1799.1207 437.50211
247.58293 1799.8459 436.34399
260.01291 1799.124 437.40857
274.22287 1797.8809 437.17447
280.91101 1797.3774 437.17447
287.81631 1796.1345 437.9711
374.88199 1755.8608 447.6955
135.49928 1763.2424 445.14575
361.71741 1765.0005 443.15436
153.48822 1774.9995 449.89468
344.93634 1775.6689 448.29175
348.89355 1773.4888 447.20514
177.78235 1786.29 449.91754
199.32968 1792.8402 449.48126
221.34753 1797.4933 444.98911
228.76099 1798.1418 445.89661
251.75499 1799.8467 445.82193
260.87369 1799.0487 445.46793
287.60031 1796.1924 447.63211
294.9068 1794.2346 444.20016
149.21693 1772.6919 454.48364
349.02527 1773.6794 452.41769
163.13696 1779.4993 451.62097
166.44589 1781.0425 452.14438
172.83157 1784.0197 450.78204
325.91489 1784.4362 451.86301
177.96002 1786.3668 457.16168
183.80225 1788.6298 452.96735
219.92995 1797.3693 455.75143
226.58752 1797.9517 455.09897
242.34309 1799.351 453.59311
124.70706 1755.6931 462.64417
143.22281 1768.6576 461.40128
364.41992 1763.1082 462.28723
149.87738 1773.1249 461.73639
352.27209 1771.6143 458.85342
164.48044 1780.1298 462.27438
165.25795 1780.4906 457.77533
331.67377 1781.7509 463.94516
340.56003 1777.6071 460.6048
178.68022 1786.6781 459.17731
191.89474 1790.853 464.90088
312.98355 1789.5012 461.38388
201.33557 1793.381 459.3461
251.75217 1799.8468 462.44849
285.04868 1796.8761 458.52713
373.07462 1757.1648 467.40198
144.22017 1769.3605 472.06818
362.67307 1764.3313 466.60336
155.18791 1775.7993 469.47925
158.59363 1777.3882 471.64352
325.78171 1784.4983 465.26364
336.39005 1779.5516 467.97122
178.11369 1786.4332 469.96326
188.26068 1789.881 469.61227
324.52066 1785.0863 472.15833
217.39796 1797.1477 467.55502
248.70198 1799.9174 467.89502
280.42783 1797.4225 465.7081
294.59418 1794.3184 466.30795
300.4252 1792.756 469.73553
134.86432 1762.8129 479.94431
148.26595 1772.0686 476.41107
180.1624 1787.3188 478.81827
188.72734 1790.0083 476.32007
312.68152 1789.5883 475.4859
208.87224 1795.4055 474.80969
216.15829 1797.0392 474.63678
230.71736 1798.313 476.57919
240.47166 1799.1665 474.96106
267.09796 1798.5043 478.16876
123.96698 1755.1831 481.69446
365.47638 1762.3684 483.59705
137.6097 1764.7374 485.2341
144.53377 1769.5857 484.9624
145.84068 1770.4789 487.16751
343.74622 1776.231 484.60236
350.88895 1772.5828 482.41745
166.44611 1781.0543 483.62988
174.07045 1784.6097 483.86917
326.44855 1784.1874 484.65717
319.26602 1787.3645 484.82068
206.1584 1794.6819 485.74588
219.22261 1797.3074 487.17007
266.12756 1798.5891 481.67188
127.97402 1757.9924 490.04941
369.0379 1759.8746 491.50153
138.4471 1765.3273 493.39395
151.30557 1773.9105 494.80695
354.35553 1770.1554 491.37137
160.36397 1778.2223 494.82059
305.19778 1791.4772 490.23959
227.23558 1798.0084 487.82639
235.05371 1798.6924 493.09814
244.00351 1799.6082 490.49243
249.0379 1799.9088 492.43427
272.32587 1798.0468 490.9751
279.63434 1797.5165 488.2659
286.82092 1796.4012 488.71927
300.98746 1792.6053 494.04288
126.42943 1756.9147 498.65137
134.25099 1762.3928 502.13095
365.28098 1762.5052 501.12769
347.71082 1774.319 496.5032
168.1916 1781.8741 499.46707
333.08157 1781.0942 497.61206
180.37117 1787.4092 497.50858
191.33075 1790.7131 498.5144
306.46155 1791.1385 500.75983
313.41626 1789.3765 501.61148
316.47055 1788.496 498.93835
202.55966 1793.7222 499.22781
214.26028 1796.6899 499.48383
269.79901 1798.2678 502.2558
281.08002 1797.3556 497.56058
286.46881 1796.4956 496.49228
298.54602 1793.2595 500.07394
300.50961 1792.7334 495.58319
136.3342 1763.853 505.41739
363.09491 1764.036 504.35681
155.87044 1776.1315 506.76758
351.03326 1772.4817 509.08786
354.26242 1770.2206 506.29346
326.98209 1783.9386 507.28082
180.54836 1787.4857 504.56467
302.59381 1792.1749 508.82343
317.53629 1788.1887 503.11557
221.91182 1797.5425 505.68259
225.46082 1797.8531 507.22821
245.55515 1799.7167 504.58115
249.58807 1799.9739 503.24857
288.33203 1795.9963 507.45911
371.97562 1757.8573 513.67126
365.03159 1762.6799 511.56961
161.89319 1778.9423 513.3385
327.10532 1783.8811 515.8941
175.05827 1785.0801 510.10956
184.65244 1788.9241 513.79016
305.14691 1791.4908 517.40094
311.27945 1789.9641 512.65277
199.38579 1792.8765 513.8064
204.38788 1794.2175 515.66406
235.6785 1798.7471 515.16895
258.77124 1799.2327 512.43774
264.26968 1798.7516 512.82141
277.32285 1797.7164 512.91992
132.15823 1760.9362 522.3197
148.33423 1772.1133 521.62866
348.85364 1773.5688 523.53809
168.12524 1781.8519 522.92896
329.9505 1782.5543 517.97534
176.30586 1785.6517 520.08777
310.55951 1790.1122 518.34106
318.70602 1787.7977 519.6767
323.10428 1785.7468 520.6264
218.16472 1797.2147 519.90619
264.51682 1798.73 524.01672
284.33185 1797.0049 518.77466
127.30334 1757.5402 530.59192
135.94897 1763.594 530.54443
152.60019 1774.5948 529.52179
169.29152 1782.3967 525.57513
177.25708 1786.063 529.427
184.51157 1788.8285 527.34106
305.72736 1791.3353 528.08557
317.54996 1788.1709 529.15002
203.14665 1793.8905 532.3075
222.7718 1797.6179 527.69775
244.88608 1799.6741 530.26038
249.14653 1799.9457 525.40399
267.40622 1798.4773 529.43713
289.58466 1795.6606 526.46149
300.827 1792.6483 531.6283
130.43831 1759.7373 535.04254
140.31784 1766.6559 536.85858
359.26862 1766.7152 539.64868
149.07143 1772.5966 535.73279
157.90785 1777.0933 538.14911
348.34186 1773.9993 538.57471
160.42993 1778.2679 534.58771
332.60474 1781.3167 537.33105
184.19559 1788.7135 537.95197
190.84079 1790.5955 538.92084
319.78925 1787.2927 536.61902
225.21062 1797.8313 538.41718
275.71008 1797.7765 535.05823
288.4584 1795.9624 534.81085
295.57956 1794.0543 535.19928
363.70248 1763.6105 546.323
155.06709 1775.77 542.01648
328.21445 1783.3639 545.92084
183.99619 1788.7423 546.48035
242.8159 1799.525 543.61072
279.71274 1797.5081 546.18176
287.60916 1796.1899 540.39716
131.64844 1760.5918 551.53821
366.55057 1761.6163 554.55743
161.64886 1778.842 550.16821
176.37346 1785.6809 552.97913
191.00191 1790.6432 552.82141
309.73993 1790.3098 548.58337
315.36496 1788.8147 553.94733
202.08173 1793.6105 548.50366
243.05453 1799.5573 552.4425
265.08813 1798.6801 552.0415
270.43726 1798.212 551.10364
292.54117 1794.8685 553.86346
366.62909 1761.5613 558.89447
140.56155 1766.8354 557.67419
143.70792 1769.0378 555.91626
364.58728 1762.991 559.76776
149.38803 1772.8041 557.95111
160.34428 1778.2366 557.67798
329.25989 1782.8763 556.67462
333.77551 1780.7708 557.65173
182.94585 1788.3906 557.1051
188.33617 1789.931 559.00623
209.69373 1795.6213 560.5954
220.88824 1797.4531 559.85535
225.80812 1797.8835 562.36768
245.99655 1799.7449 562.29077
255.903 1799.4836 556.45319
283.78699 1797.0642 557.9231
288.48047 1795.9565 557.74536
366.35883 1761.7506 569.06299
356.96701 1768.3268 567.34692
362.92804 1764.1528 569.55145
343.85504 1776.1951 566.68005
350.25522 1772.8693 564.35162
325.08499 1784.8232 564.10828
331.66919 1781.7529 562.75708
178.5632 1786.6276 562.67151
307.20151 1790.9403 562.81244
314.10663 1789.1775 564.4444
201.8345 1793.5504 566.80731
207.40417 1795.0376 568.01227
217.74042 1797.1776 568.63507
239.52608 1799.0837 562.76245
241.01646 1799.2737 563.32941
259.5358 1799.1658 562.64752
281.9183 1797.2678 566.0022
288.30826 1796.0027 566.0697
299.05255 1793.1238 567.11615
147.95609 1771.8655 573.09906
156.44345 1776.4248 576.93719
163.81192 1779.86 574.995
167.64261 1781.6451 571.76709
177.22353 1786.0485 575.40826
188.65433 1790.0214 574.50134
197.10881 1792.2875 576.67761
209.24821 1795.5143 575.42175
215.58234 1796.9889 570.92737
217.60303 1797.1656 577.17474
227.1226 1797.9985 571.57318
249.80212 1799.9875 570.45044
358.26526 1767.4177 581.29816
363.44608 1763.79 579.29572
148.71092 1772.3604 579.74469
350.54987 1772.8202 583.64392
164.54419 1780.2035 580.51062
165.96529 1780.8658 579.46979
179.31319 1786.9518 577.65967
192.35666 1791.0155 580.94391
302.17398 1792.2874 581.5058
310.47293 1790.2041 579.43164
213.98915 1796.6537 580.97748
217.90169 1797.1918 584.96497
233.29718 1798.5387 582.83997
255.51001 1799.5179 582.17529
267.95566 1798.4291 584.31396
272.41101 1798.0393 582.28821
283.03018 1797.1466 582.09753
135.56892 1763.3542 592.00751
359.40561 1766.6193 586.88525
152.39046 1774.4471 588.83765
349.52548 1773.3099 589.2865
164.50252 1780.1873 588.82483
322.9852 1785.8024 589.93347
207.47279 1795.0687 589.72491
229.91638 1798.2429 587.91626
265.54935 1798.6396 589.16516
279.6098 1797.5192 591.13477
288.05423 1796.0708 588.79651
299.67755 1792.9563 587.45502
138.14059 1765.1581 599.20435
343.25919 1776.485 599.01031
336.56171 1779.4716 593.68274
191.86931 1790.8896 595.00403
303.15268 1792.0251 599.97577
310.62674 1790.1807 594.3595
323.31427 1785.6489 598.22272
205.3826 1794.51 593.51239
213.52592 1796.5424 592.92175
245.24432 1799.6968 595.19153
248.04431 1799.8754 596.18225
265.99832 1798.6005 598.93634
277.09677 1797.793 595.90424
281.09421 1797.3575 599.56543
293.00507 1794.7441 592.64746
153.23946 1774.9418 606.58679
162.19794 1779.1195 607.42236
172.20674 1783.7842 600.55292
173.04375 1784.1749 601.71552
325.77127 1784.5032 603.32227
336.23761 1779.6227 604.86218
177.01218 1785.957 604.51831
192.64415 1791.0997 602.58124
200.10596 1793.1006 607.06879
213.71048 1796.5867 605.94489
236.73824 1798.8398 607.13983
264.7243 1798.7118 601.04474
134.43874 1762.571 611.05902
138.76552 1765.6016 612.95581
142.72116 1768.369 607.61139
360.5257 1765.835 612.04572
353.38937 1770.8319 612.97192
162.21022 1779.1257 608.70624
189.43042 1790.2419 612.33783
314.5708 1789.0436 608.28308
208.38171 1795.306 608.75354
211.83134 1796.135 609.0929
222.88379 1797.6277 612.06097
236.16638 1798.7898 609.61066
282.26682 1797.2299 611.88312
292.75922 1794.8101 609.89362
300.91043 1792.626 614.02991
362.46295 1764.4785 620.97546
155.30571 1775.9092 616.88562
343.33133 1776.45 615.56921
351.20392 1772.3622 621.92651
162.27405 1779.1584 616.47107
325.85162 1784.4658 618.08167
174.99757 1785.0862 615.04303
193.98566 1791.4652 620.4082
197.63316 1792.4407 615.01685
310.62592 1790.1809 619.74286
199.55037 1792.9563 620.81134
215.74887 1797.0034 621.28448
235.43958 1798.7262 618.38623
274.3652 1797.9067 622.35266
136.93137 1764.3218 623.4726
349.14355 1773.6219 625.02484
352.6012 1771.3838 628.85229
169.04126 1782.3182 628.05768
340.51196 1777.6774 628.86414
310.50555 1790.1255 627.72925
323.09305 1785.7521 623.25806
199.73587 1793.0079 626.42322
218.71492 1797.2629 626.27344
241.02357 1799.3463 626.27887
267.02838 1798.5103 625.85291
290.01685 1795.5448 627.41901
141.01472 1767.1866 636.89557
361.34549 1765.261 632.90662
154.08823 1775.3302 636.90393
307.1337 1790.9585 635.36084
199.17618 1792.8602 633.36139
205.87935 1794.6555 631.07001
217.47958 1797.1548 632.53101
245.92755 1799.7405 633.16907
258.24347 1799.2789 631.25128
289.88782 1795.5795 630.35181
138.43201 1765.3798 640.35266
144.52226 1769.6147 642.50568
148.29912 1772.0903 639.98279
341.38306 1777.3615 641.94568
162.05624 1779.0656 639.8623
167.29456 1781.5093 642.64673
326.23956 1784.2848 644.96521
341.00958 1777.5059 643.07556
184.69513 1788.9763 640.57904
195.3194 1791.8289 639.31732
302.53772 1792.1899 638.50482
310.39307 1790.2479 644.27606
318.59534 1787.7064 642.4657
324.01648 1785.3215 644.61572
223.84731 1797.7119 644.27271
228.2744 1798.0992 641.89398
254.83543 1799.577 639.20148
257.92288 1799.3069 639.43933
359.07465 1766.8511 649.30566
156.68539 1776.564 647.47314
335.04086 1780.1808 647.02734
184.38657 1788.8584 648.49048
193.44093 1791.3285 648.14331
198.62354 1792.7172 648.12903
220.90646 1797.4546 649.87671
225.28746 1797.838 647.94702
235.23314 1798.7081 650.4632
240.99911 1799.3684 648.89636
280.8334 1797.3859 648.40851
147.56503 1771.6091 653.87024
157.14746 1776.7822 654.96936
351.23138 1772.343 657.15393
168.98221 1782.3026 659.98901
326.35895 1784.2291 652.98218
184.7195 1788.9845 654.86938
190.49802 1790.5436 659.22729
313.08698 1789.4714 659.62573
199.06696 1792.8383 654.78906
214.62033 1796.8053 655.76532
220.16232 1797.3895 656.7558
252.04337 1799.8213 657.44592
260.7124 1799.0629 653.40997
273.70114 1797.962 657.76306
284.43497 1796.9937 652.68597
291.23352 1795.2189 652.50031
300.68036 1792.6876 656.49969
359.78607 1766.3529 664.547
162.38402 1779.2273 663.56384
168.09158 1781.8887 663.37842
177.08362 1785.9879 665.89398
189.71764 1790.3373 667.37878
303.53638 1791.9224 663.83008
312.74155 1789.5709 663.50592
316.07663 1788.6095 664.57458
324.2341 1785.2201 660.14264
217.96838 1797.1976 666.58813
247.20403 1799.8218 660.36792
289.5838 1795.6609 660.18127
299.60956 1792.9745 661.88611
148.73174 1772.3739 671.51752
154.0269 1775.3331 671.24268
351.01862 1772.4919 671.89557
352.67163 1771.3345 670.44305
160.63252 1778.4122 668.26752
330.13892 1782.4666 671.81885
339.68826 1778.0463 669.05371
307.92105 1790.8179 672.04797
209.89508 1795.6697 670.8761
224.18359 1797.7413 672.73541
226.25378 1797.9226 670.5105
245.09702 1799.6875 671.21753
250.74443 1799.7867 672.05566
257.63605 1799.332 671.79779
265.29221 1798.6621 672.4505
274.8924 1797.9487 668.10425
284.41101 1796.9962 669.67499
360.85248 1765.6062 678.06641
327.31186 1783.7848 677.65961
182.60818 1788.2185 678.19397
306.96292 1791.014 678.98376
217.02478 1797.115 682.09869
218.77203 1797.2679 675.46466
251.16214 1799.8984 678.98865
256.26422 1799.4521 681.35669
271.50742 1798.1184 680.34686
282.15173 1797.2423 681.19495
299.18158 1793.0892 682.1969
145.90337 1770.52 684.46979
352.85583 1771.2054 684.42755
171.74689 1783.6012 685.14642
174.90358 1785.0455 683.02563
195.96445 1792.0178 687.65863
308.90555 1790.64 684.21503
206.42624 1794.7877 686.78357
234.6147 1798.6541 685.47314
251.69527 1799.8518 684.08435
298.3938 1793.3003 687.44702
158.88211 1777.6046 691.46368
168.48378 1782.0826 693.18866
333.74286 1780.786 692.88666
180.21919 1787.3434 694.26428
196.78224 1792.2378 690.38782
305.86432 1791.322 695.40967
322.79633 1785.8904 691.02905
212.1239 1796.2053 695.47815
229.03174 1798.1655 692.78149
251.01501 1799.9114 697.4726
262.08035 1798.9431 690.21393
155.74998 1776.1465 697.87598
163.41177 1779.72 699.8255
171.65683 1783.5652 701.32098
173.56198 1784.4537 701.71295
324.76169 1784.974 703.74561
175.32365 1785.2272 702.88312
195.98184 1792.0264 699.24268
305.23181 1791.468 703.4317
319.99496 1787.1967 698.44818
215.37238 1796.9705 704.86688
218.01202 1797.2014 704.55658
231.35765 1798.369 697.98578
274.9566 1797.9873 702.35779
297.09259 1793.6489 702.93573
181.53448 1787.8647 712.19031
187.87686 1789.859 712.27179
306.63629 1791.1132 707.61273
317.91284 1788.0157 707.63892
323.22379 1785.691 705.48273
205.24043 1794.5101 708.13165
220.69858 1797.4365 711.00372
236.4415 1798.8138 705.26752
267.20905 1798.4945 711.46521
278.53464 1797.6364 706.87567
293.23166 1794.6835 705.68292
308.62793 1790.7318 714.6842
202.47188 1793.7699 712.96649
291.59494 1795.1221 715.20575
292.95374 1794.7579 714.99774
300.8916 1792.631 719.72424
202.62544 1793.8134 720.10919
224.07907 1797.7323 722.82947
227.28738 1798.0129 724.13654
238.71294 1799.1079 725.797
254.10899 1799.6406 722.89691
257.99054 1799.301 724.57928
294.27087 1794.405 721.28577
227.91621 1798.068 732.16327
232.89488 1798.5035 731.63428
254.62726 1799.5952 730.06848
224.38394 1761.4741 224.8849
247.52612 1761.0197 224.99994
294.57684 1762.4978 224.62584
199.35471 1765.8641 223.77388
224.54259 1766.958 223.49706
238.41891 1762.7087 224.57246
262.44662 1763.2389 224.43828
307.58902 1768.9517 222.99249
208.10217 1772.8774 221.99893
271.5878 1776.1149 221.17961
280.33209 1773.1964 221.91823
239.31248 1781.3468 219.8555
271.02228 1778.1168 220.67294
153.2363 1753.3334 226.94519
160.86394 1749.9055 231.76875
176.97462 1750.4622 228.62805
200.60004 1751.9377 229.28439
206.09291 1749.8893 231.86011
212.9827 1751.1206 227.50519
261.99796 1752.2219 227.22646
264.6188 1751.6703 227.36609
275.07697 1749.8715 231.96028
281.28683 1750.4916 228.46159
295.37317 1750.151 230.3831
318.72684 1749.9224 231.67357
328.9935 1753.9865 226.77988
337.28439 1750.9913 227.53793
346.46521 1750.5396 228.19107
163.88806 1756.5552 226.12981
205.14616 1757.0897 225.99452
217.50055 1760.5969 225.10693
226.66228 1758.3228 225.68246
235.03635 1759.2505 225.44769
243.50896 1757.795 225.81599
295.63028 1757.0782 225.99742
308.01727 1760.5852 225.10989
332.52255 1755.0768 226.50395
172.08582 1748.7511 238.28265
187.49373 1749.476 234.19232
189.13518 1748.58 239.24757
247.56606 1749.5724 233.64838
259.36282 1749.1444 236.06281
300.17648 1748.6954 238.59671
333.72595 1749.4791 234.1741
349.52176 1749.5624 233.70494
156.05913 1747.2279 246.87717
179.2375 1747.412 245.83836
193.82385 1747.3638 246.10968
238.32692 1747.4529 245.60712
244.33209 1747.2833 246.56363
259.29657 1747.3251 246.32819
346.58401 1747.4353 245.70619
144.09369 1747.8896 243.14337
162.79414 1748.2114 241.32715
172.64943 1748.066 242.14687
279.36093 1748.2356 241.19122
333.74963 1747.5474 245.07449
337.80225 1748.2046 241.36633
352.73352 1748.1498 241.67554
168.4223 1746.2416 252.44205
224.38055 1745.8235 254.80133
285.15735 1745.8953 254.39597
298.70544 1746.7463 249.59384
336.67743 1746.1343 253.04759
163.63968 1745.1655 258.51285
174.02194 1744.6349 261.50748
206.43709 1745.4426 256.94958
233.57474 1745.4072 257.15002
241.09688 1744.5101 262.21136
267.67682 1744.5883 261.77078
283.79062 1745.6244 255.9248
297.71176 1745.676 255.63364
153.89096 1743.1962 269.625
171.43338 1743.7428 266.54114
196.05656 1743.3135 268.96375
205.57571 1743.3879 268.54321
225.54948 1743.2345 269.40912
250.3493 1743.6483 267.07407
261.14737 1743.4315 268.29688
279.84686 1743.8763 265.78732
296.74979 1743.9645 265.29083
321.6416 1744.1631 264.1698
326.01245 1743.791 266.26889
341.72916 1743.2024 269.59073
355.12006 1743.515 267.82657
360.31271 1744.1825 264.05981
156.00082 1742.3625 274.32953
178.46941 1742.5548 273.24451
211.39389 1742.7288 272.26334
224.19263 1742.345 274.42767
231.83255 1742.3931 274.15689
254.78842 1742.6786 272.54575
259.05847 1742.8267 271.71045
278.76907 1742.605 272.96088
296.08075 1741.8151 277.41788
317.05759 1742.4406 273.88803
334.76221 1742.5017 273.54407
166.70148 1741.0148 281.93372
176.99265 1740.9917 282.06378
183.97983 1741.7936 277.53979
210.32458 1741.325 280.18356
234.23065 1740.7041 283.68744
253.27403 1740.8328 282.96017
265.17606 1741.5305 279.02448
287.62814 1741.3092 280.27246
316.25116 1741.7875 277.5737
336.80109 1741.4645 279.39609
340.6008 1740.8909 282.63315
349.91266 1741.4503 279.47632
357.10339 1740.6406 284.04535
146.18114 1739.8547 288.47925
161.49667 1739.6866 289.42734
191.88182 1739.5919 289.96243
233.24527 1739.5916 289.96405
240.89107 1739.4446 290.79358
257.92627 1739.6788 289.47205
262.67471 1739.5894 289.97656
290.88419 1739.345 291.35587
302.6756 1739.4657 290.67419
322.31918 1739.2347 291.97757
323.29172 1739.8105 288.72882
244.97934 1740.1067 287.05746
253.62262 1740.1335 286.90564
304.79529 1740.3867 285.47745
313.90829 1740.1742 286.67654
322.46631 1740.141 286.86462
362.27917 1740.0487 287.38541
166.30966 1738.2859 297.33075
193.10777 1739.1245 292.59912
197.5881 1738.7604 294.65381
206.34909 1738.0168 298.84976
216.03604 1738.7292 294.82965
257.41626 1738.6415 295.32446
304.77722 1737.9569 299.18726
312.94958 1738.0909 298.43115
335.45734 1738.6165 295.46631
359.32068 1738.062 298.59473
140.49821 1737.3582 302.56586
150.7184 1737.1139 303.94418
183.10626 1736.7594 305.9444
204.43959 1737.5018 301.75537
212.47034 1737.1312 303.84622
223.82547 1737.5697 301.37219
231.58498 1737.2963 302.91519
238.93553 1737.0929 304.06281
251.76524 1737.4204 302.21457
255.63361 1737.0675 304.20575
269.43674 1736.9055 305.11987
277.51419 1737.5389 301.54593
132.35892 1735.8479 311.08777
149.03178 1735.9907 310.28125
162.51321 1735.6594 312.15088
165.02814 1735.7164 311.82913
175.29324 1735.9861 310.30798
198.80034 1735.8545 311.04993
215.4166 1736.2839 308.62683
239.20485 1735.5057 313.01868
252.14471 1736.3409 308.30554
272.13232 1735.5498 312.76932
287.07321 1735.5078 313.00671
312.65109 1735.4065 313.57816
318.94492 1735.7627 311.56824
336.67242 1735.4049 313.58731
346.07278 1736.1713 309.26288
363.58636 1735.7092 311.87039
372.75906 1736.0641 309.86807
157.22375 1734.6224 318.00174
185.29436 1735.1041 315.28387
201.31589 1734.6517 317.83707
208.10654 1734.4902 318.74823
218.40659 1734.8792 316.55362
273.59097 1734.7117 317.49829
330.43027 1734.4742 318.83856
339.05142 1734.0197 321.40329
345.93051 1734.0017 321.50476
358.08411 1734.214 320.30692
362.89304 1735.0548 315.56284
132.43555 1733.1838 326.11951
163.03413 1733.7111 323.14395
169.53433 1733.4077 324.85535
172.93854 1733.5424 324.09613
183.26115 1733.3073 325.42282
189.5045 1732.9561 327.4039
207.79207 1733.5823 323.87067
235.38536 1732.5133 329.90231
243.59238 1733.34 325.23804
247.74892 1733.8157 322.55371
273.24493 1733.2836 325.5567
286.43756 1733.3497 325.18304
296.63583 1733.4128 324.82727
365.15451 1732.7087 328.79953
126.45764 1731.2313 337.13641
139.80446 1731.9619 333.01416
145.69122 1732.3446 330.85434
168.75687 1731.3501 336.46613
173.33853 1731.4365 335.97849
183.29283 1731.7705 334.0943
204.69467 1732.4427 330.30035
215.56212 1732.0021 332.78705
224.35004 1732.1005 332.2319
264.85938 1731.7329 334.30603
279.35913 1731.7629 334.13657
285.42609 1731.672 334.64932
300.02988 1731.8671 333.54868
328.6626 1732.4636 330.18274
338.68384 1731.6348 334.85925
348.72757 1731.3413 336.51581
127.15055 1729.99 344.14008
138.3008 1731.1217 337.7547
177.76414 1730.89 339.06204
247.52663 1731.0269 338.28958
256.55893 1730.2502 342.67148
272.9657 1730.8524 339.27414
295.54459 1730.2827 342.48828
328.25598 1730.5934 340.73541
347.06284 1730.7469 339.8692
353.54678 1730.1215 343.39856
371.40433 1730.511 341.20035
129.97189 1730.2449 349.28342
139.34702 1730.3624 351.25037
174.46121 1730.3025 350.24701
186.87303 1730.4329 352.42715
194.23367 1730.2582 349.50659
235.42549 1730.068 346.32565
256.84271 1730.3297 350.70282
266.24506 1730.2285 349.01083
279.32315 1730.1129 347.07767
287.07492 1729.9961 345.12476
297.19379 1730.274 349.77118
306.13824 1730.3214 350.56436
335.58423 1730.3094 350.36456
350.00195 1730.0839 346.59253
365.2388 1730.0378 345.82309
375.61453 1730.2897 350.03281
125.4155 1730.7407 357.57681
137.44434 1730.6742 356.46368
158.11349 1730.5737 354.78296
188.76492 1730.6389 355.87299
212.49831 1730.547 354.3367
236.59659 1730.6621 356.26196
246.11646 1730.4774 353.17267
254.37854 1730.6163 355.4957
301.01239 1730.4905 353.39218
314.13885 1730.4392 352.53354
319.38986 1730.7181 357.19763
349.21494 1730.7194 357.22055
367.41229 1730.8704 359.74551
141.83136 1730.9807 361.59055
147.84424 1731.2889 366.74487
154.87369 1731.2448 366.00464
159.18375 1731.0018 361.94342
174.01053 1731.29 366.7619
228.54675 1731.1187 363.89478
243.84779 1731.1779 364.88779
270.75153 1731.1819 364.95319
278.83704 1731.1919 365.12189
289.42517 1731.192 365.12421
359.76959 1731.2802 366.59708
362.57126 1731.1505 364.42813
373.54004 1730.9858 361.6756
127.17775 1731.4855 370.03003
134.83769 1731.571 371.46219
136.92467 1731.7485 374.42941
149.37083 1731.3525 367.80725
156.09781 1731.4177 368.89661
169.00264 1731.7675 374.74612
192.41701 1731.745 374.37042
210.43102 1731.4799 369.93753
230.77043 1731.6562 372.8869
260.71243 1731.3369 367.54489
269.84775 1731.7054 373.70847
281.12802 1731.6019 371.9772
294.92874 1731.5519 371.14047
308.83115 1731.4745 369.84811
319.09192 1731.5886 371.75494
328.99109 1731.7334 374.17709
342.27542 1731.4719 369.80472
349.3309 1731.5074 370.39856
354.22675 1731.5422 370.9798
127.11865 1731.9382 377.60205
152.01385 1732.1973 381.93304
164.17737 1732.1455 381.06909
173.21231 1731.9448 377.71185
185.08717 1731.8606 376.30325
232.24277 1731.8931 376.84695
248.09612 1732.0132 378.8551
272.703 1732.0493 379.45874
279.51898 1732.1241 380.71024
298.74747 1732.0886 380.11636
303.561 1731.9645 378.04059
314.72852 1732.0022 378.67136
326.18475 1731.9971 378.58688
337.37033 1731.9294 377.45334
348.23911 1731.999 378.61661
365.44241 1731.8118 375.48636
374.51636 1731.9138 377.19272
375.4296 1731.8696 376.45477
126.55685 1732.3339 384.21695
148.56265 1732.2491 382.80133
150.36769 1732.4646 386.40506
192.00861 1732.3523 384.52603
199.10139 1732.4866 386.7717
251.56714 1732.3589 384.63812
345.81989 1732.4 385.32599
355.00037 1732.3392 384.30701
173.1131 1732.5923 388.53839
184.49628 1732.551 387.85022
234.74702 1732.506 387.09558
243.79881 1732.6417 389.366
343.89783 1732.6381 389.30441
163.44604 1732.8193 392.33777
176.47754 1732.7515 391.20325
192.55869 1732.9016 393.71155
207.5396 1732.9669 394.8031
212.49049 1732.972 394.88925
233.9178 1732.8999 393.68362
254.13504 1733.125 397.44748
262.01553 1732.6969 390.289
273.56454 1733.0342 395.92834
306.79727 1732.8129 392.22803
310.71082 1732.9927 395.23456
315.27734 1733.1279 397.49686
322.68594 1732.7863 391.78143
344.57175 1732.9231 394.07016
348.73102 1732.8352 392.60175
358.45917 1732.8903 393.52231
135.96838 1733.338 401.01163
160.74849 1733.2439 399.43607
167.44409 1733.3479 401.17426
178.78702 1733.2013 398.72281
197.01489 1733.4393 402.70551
236.31012 1733.2554 399.62823
262.84436 1733.1887 398.51532
277.58499 1733.568 404.85599
288.104 1733.3774 401.6701
314.42853 1733.4318 402.57767
340.38806 1733.5511 404.5726
372.10547 1733.2698 399.86829
192.99992 1734.0125 412.28888
204.46335 1733.9041 410.4743
223.02324 1733.9535 411.30194
235.68393 1733.9542 411.31512
270.91574 1733.795 408.65381
308.556 1733.6755 406.65381
320.41272 1733.8395 409.39685
325.01273 1733.9795 411.73758
336.46338 1733.7628 408.11337
342.77261 1733.6985 407.03809
350.68204 1733.5928 405.27127
139.6828 1734.0428 412.79724
143.61398 1734.244 416.16138
158.91592 1734.1373 414.37628
194.84694 1734.4718 419.9704
227.73129 1734.0629 413.13205
245.39549 1734.2212 415.77875
277.19824 1734.1484 414.56277
318.79376 1734.1543 414.65875
350.47797 1734.0955 413.67563
357.25977 1734.2327 415.97034
146.47011 1734.504 420.50885
153.96893 1734.7432 424.50745
163.07913 1734.8468 426.24173
178.98734 1734.8809 426.80969
201.01357 1734.7399 424.4538
209.63187 1734.7389 424.43723
221.55611 1734.7977 425.4209
232.46504 1734.8441 426.19452
237.73265 1734.5649 421.52795
260.25739 1734.6622 423.15631
289.78662 1734.6829 423.50018
313.15118 1734.6685 423.25861
317.09448 1734.7065 423.89694
333.03131 1734.8838 426.85815
341.39966 1734.7222 424.15561
356.83441 1734.6991 423.77161
362.83109 1734.8335 426.01962
167.15021 1734.9755 428.39316
176.43729 1735.3567 434.76712
192.25346 1734.9509 427.98221
202.15802 1735.0555 429.73233
208.24568 1735.1815 431.83847
240.07634 1735.3315 434.3476
261.01761 1735.2582 433.1196
275.0314 1735.0933 430.36377
280.02057 1735.116 430.74301
294.22314 1735.1406 431.15466
310.68524 1735.1057 430.57159
322.08206 1735.1426 431.18665
340.11389 1735.2313 432.67212
348.63806 1735.2253 432.57086
365.05511 1735.0549 429.72339
139.73671 1735.793 442.06287
153.09473 1735.5114 437.35513
158.58453 1735.3916 435.35291
168.04344 1735.5688 438.3161
187.93512 1735.4052 435.57764
214.7825 1735.4867 436.94269
233.88748 1735.7621 441.54669
275.78961 1735.5632 438.22302
297.8266 1735.6652 439.92648
303.21313 1735.7885 441.98767
312.54391 1735.6243 439.24243
348.64334 1735.6459 439.60233
361.56711 1735.8134 442.40302
135.97893 1736.058 446.49619
145.47247 1735.8815 443.54474
155.00421 1736.0461 446.29739
163.86078 1736.0873 446.98584
196.59741 1736.0201 445.86426
223.0128 1736.0597 446.52316
227.80923 1736.1866 448.6481
238.75095 1735.991 445.37393
260.40414 1735.8787 443.49551
268.16299 1736.1033 447.25238
290.95419 1736.1874 448.65994
297.54388 1735.8665 443.29303
330.6911 1736.1559 448.13312
339.86487 1736.1326 447.74347
345.96796 1735.9099 444.01996
145.95323 1736.5604 454.89725
150.6067 1736.4415 452.90912
191.66629 1736.4017 452.24435
200.9671 1736.4578 453.18161
207.77896 1736.5325 454.43118
220.56512 1736.5596 454.88239
230.36745 1736.5592 454.87656
249.94614 1736.5156 454.14893
262.64578 1736.5468 454.66962
289.59842 1736.3361 451.14432
303.59689 1736.6158 455.82535
327.98294 1736.3243 450.9512
336.86703 1736.3177 450.83942
347.70868 1736.4211 452.57025
130.33026 1736.9099 460.74277
144.68489 1736.7195 457.5571
164.90025 1736.9738 461.80865
168.81357 1736.9481 461.38168
172.63075 1736.8206 459.24686
199.01212 1737.0183 462.55408
220.31215 1736.7373 457.85562
241.44232 1737.0386 462.89304
270.2229 1736.8744 460.1481
287.58307 1736.9833 461.96765
298.39456 1736.8224 459.27765
320.60046 1737.0466 463.02808
331.82654 1736.7842 458.64087
361.51859 1737.0912 463.7731
156.11563 1737.1851 465.34329
158.65851 1737.3311 467.78421
173.56348 1737.4304 469.44644
183.09285 1737.2236 465.98901
204.508 1737.3313 467.7897
213.67413 1737.3246 467.67648
242.92807 1737.4087 469.08386
257.94666 1737.376 468.53674
284.76743 1737.3989 468.91907
290.35629 1737.5229 470.99307
300.41739 1737.5363 471.21588
316.95755 1737.4855 470.36792
324.45792 1737.4818 470.30692
331.83704 1737.3 467.2655
348.2962 1737.2174 465.88281
362.58856 1737.5575 471.57159
156.15572 1738.0287 479.45267
163.18988 1737.7383 474.59564
208.69025 1737.6952 473.8743
223.6701 1737.8138 475.8591
254.2459 1737.927 477.75055
255.04018 1737.9937 478.86664
271.83112 1738.0321 479.50851
280.23346 1737.7949 475.54105
289.91235 1737.6987 473.93365
298.95389 1737.7384 474.59772
308.91376 1737.9824 478.67813
337.02264 1737.7021 473.99097
141.89717 1738.2764 483.59464
143.7561 1738.4728 486.87766
181.72734 1738.1039 480.71002
194.01874 1738.292 483.85565
201.00208 1738.1323 481.18454
209.89609 1738.1113 480.83206
240.56332 1738.2196 482.64471
253.61877 1738.1996 482.30817
285.97461 1738.2227 482.69452
299.48959 1738.4591 486.64941
313.73566 1738.2236 482.711
322.10318 1738.0953 480.56607
326.13147 1738.1821 482.01617
333.20523 1738.4812 487.01923
340.54446 1738.4192 485.98114
349.38245 1738.4015 485.68524
353.80304 1738.4664 486.77167
130.9212 1738.8976 493.98199
163.38206 1738.7913 492.20364
170.40015 1738.5701 488.50342
218.6749 1738.6931 490.56189
228.11166 1738.9556 494.95206
290.14368 1738.6122 489.20831
304.47968 1738.7135 490.90283
336.86996 1738.5634 488.39319
337.55948 1738.957 494.97546
357.06079 1738.615 489.25623
162.33463 1738.9768 495.30756
169.70244 1739.3645 501.78912
188.20973 1739.0967 497.31049
205.07034 1739.2727 500.25589
213.43362 1739.1346 497.94626
243.08685 1739.0653 496.78662
309.93799 1739.3666 501.82355
325.6257 1739.2578 500.00406
353.37042 1739.0872 497.1525
362.43042 1739.3092 500.86462
373.10373 1738.9852 495.44708
134.86179 1739.7183 507.70462
163.00043 1739.6595 506.72473
217.93201 1739.5671 505.17865
231.23639 1739.436 502.98672
274.27271 1739.5103 504.22516
279.29626 1739.677 507.01489
327.34341 1739.739 508.0528
357.31189 1739.691 507.24902
365.81729 1739.4136 502.60947
159.44484 1739.937 511.36255
170.55846 1739.9958 512.34827
202.88237 1739.9298 511.24451
140.05 1740.1113 514.2796
180.11105 1740.288 517.23444
192.36914 1740.283 517.1485
197.9306 1740.1111 514.27448
236.64969 1740.1558 515.02319
240.34108 1740.2158 516.0271
253.04877 1740.0115 512.61011
294.02106 1740.1685 515.23456
305.75934 1740.0625 513.46252
357.23926 1740.0208 512.76282
135.36618 1740.348 518.23822
146.41623 1740.6472 523.24152
225.05652 1740.474 520.34412
256.52075 1740.5471 521.56665
269.88373 1740.5751 522.03351
298.79407 1740.6957 524.05139
320.99396 1740.3243 517.84161
335.98688 1740.6272 522.90509
341.87366 1740.5404 521.45502
363.71216 1740.5059 520.87842
166.5937 1740.9564 528.41199
175.22795 1740.8021 525.83154
182.70844 1740.9835 528.86487
222.60028 1741.0177 529.43793
228.12108 1740.821 526.14728
243.67708 1740.7817 525.49097
247.8197 1741.1287 531.2915
287.61987 1740.8949 527.38416
299.68469 1741.1198 531.14209
303.85559 1741.0823 530.51611
315.22098 1740.7902 525.63055
337.93875 1741.1523 531.68787
146.99731 1741.5114 537.69324
151.77054 1741.225 532.90204
170.3622 1741.3992 535.81665
173.05852 1741.5223 537.87469
181.57706 1741.2784 533.7959
191.90302 1741.2319 533.01813
224.06918 1741.2468 533.26715
231.33588 1741.3138 534.38727
249.90453 1741.3284 534.63275
282.73819 1741.6263 539.61316
301.94962 1741.2762 533.76019
319.04559 1741.2725 533.69647
356.73682 1741.2095 532.64258
138.96181 1741.9993 545.84998
148.6774 1741.8907 544.03497
153.85925 1741.9696 545.35474
177.1028 1741.9866 545.63922
191.28001 1741.7906 542.3606
229.83727 1741.8813 543.87891
244.92719 1741.7518 541.71356
253.78725 1742.0162 546.13385
270.19257 1741.8246 542.92944
290.09979 1741.8031 542.5697
331.37527 1741.6918 540.70886
347.32129 1741.7603 541.85449
137.07672 1742.5012 554.24493
149.24045 1742.1914 549.06372
166.01453 1742.0994 547.52374
193.67273 1742.3732 552.10266
195.93613 1742.2166 549.48352
209.8257 1742.4801 553.89069
245.00031 1742.2959 550.80957
255.06566 1742.4166 552.83112
271.98877 1742.4232 552.94
299.71588 1742.1815 548.89801
316.98727 1742.5239 554.62402
323.23611 1742.1533 548.42657
336.7634 1742.1891 549.02417
341.0986 1742.3251 551.29877
345.0556 1742.249 550.02698
139.1588 1742.6958 557.50031
155.37051 1742.8696 560.40497
168.08951 1742.7974 559.19849
200.69557 1742.783 558.95752
202.53967 1742.9575 561.87646
224.80418 1742.7759 558.83722
229.17715 1742.8212 559.59558
236.4241 1742.698 557.53564
251.89719 1742.6785 557.20728
279.01001 1742.8772 560.53113
291.60141 1742.7715 558.76477
299.32022 1742.6389 556.54614
303.54184 1742.5637 555.28809
324.05728 1742.6088 556.04333
331.05475 1742.7162 557.83966
338.10645 1742.8849 560.6618
351.77264 1742.8119 559.43848
141.19914 1743.4219 569.64276
142.51558 1743.4066 569.38507
157.63687 1743.0962 564.19434
170.31271 1743.0481 563.38861
191.89311 1743.0031 562.63763
196.0408 1743.2605 566.94177
220.65503 1743.156 565.19507
227.84407 1743.2306 566.44183
255.06926 1743.1486 565.06879
281.37982 1743.1187 564.56946
314.09344 1743.2958 567.53235
334.55099 1743.3624 568.64594
340.71115 1743.4205 569.61761
360.22342 1743.0363 563.19135
215.36693 1743.6497 573.45056
261.97964 1743.7759 575.56006
271.5769 1743.5219 571.31226
302.84924 1743.6055 572.71069
313.85507 1743.802 575.99597
319.5661 1743.7963 575.90143
330.8924 1743.5402 571.61859
348.63956 1743.7156 574.55139
138.17441 1744.2574 583.61328
147.73825 1744.2023 582.69141
152.55817 1743.989 579.12354
161.38353 1743.9834 579.03082
170.21333 1744.1377 581.61133
172.77084 1744.0195 579.63434
201.09631 1743.9261 578.07263
209.50803 1743.8993 577.62585
219.46622 1744.0571 580.26324
229.26457 1743.9697 578.802
246.34218 1744.3026 584.36743
272.52286 1744.1478 581.77899
284.75882 1744.1212 581.33539
294.67508 1744.1462 581.75183
300.47937 1744.1281 581.44958
326.09009 1744.1992 582.63885
337.18829 1744.171 582.1684
339.06592 1744.1387 581.62695
348.63196 1744.1066 581.08875
153.31635 1744.5358 588.26654
168.02406 1744.4474 586.78918
187.81709 1744.4122 586.20325
209.91273 1744.4064 586.10455
219.5755 1744.7797 592.34631
228.79784 1744.3994 585.98859
265.75632 1744.4918 587.53278
273.0589 1744.687 590.79553
278.16556 1744.3885 585.8064
287.01404 1744.6704 590.51837
304.99768 1744.5238 588.06683
310.36475 1744.6503 590.18268
318.35742 1744.6211 589.69421
178.68692 1744.7905 592.52728
202.04419 1745.0372 596.65356
211.00732 1745.0614 597.05676
218.92389 1744.9939 595.92834
238.87634 1744.9299 594.86108
251.52881 1745.071 597.21759
256.67673 1744.9623 595.3999
269.78537 1744.845 593.43842
332.29016 1744.9966 595.974
340.25122 1745.1057 597.79749
152.22391 1745.4421 603.42444
159.66971 1745.2767 600.65991
174.54388 1745.4976 604.35059
192.33511 1745.6731 607.28723
241.35675 1745.665 607.1532
263.43307 1745.4806 604.06775
279.21793 1745.5195 604.71863
301.25934 1745.4763 603.99731
321.56793 1745.4175 603.01099
334.38699 1745.3755 602.31079
339.57098 1745.3893 602.54034
152.45955 1745.9352 611.66974
160.06168 1746.1119 614.62549
167.01619 1745.7479 608.53827
186.38815 1746.0955 614.35071
192.17287 1745.9083 611.22241
200.16585 1746.0891 614.24353
258.75635 1745.7202 608.0752
283.23184 1745.8635 610.47125
288.88123 1746.0082 612.89075
312.33563 1745.9342 611.65277
340.55939 1745.9244 611.48914
141.60477 1746.4203 619.78125
157.38594 1746.2823 617.47632
163.56764 1746.3469 618.55444
171.66766 1746.5762 622.39032
176.64026 1746.3462 618.54425
184.91647 1746.5417 621.81256
187.85884 1746.1432 615.14911
200.02582 1746.3807 619.12189
248.93314 1746.5726 622.32965
259.17569 1746.3761 619.04346
265.84348 1746.4348 620.0249
305.64758 1746.4081 619.57953
319.5459 1746.4634 620.50085
325.01682 1746.5623 622.15558
349.68961 1746.558 622.08441
353.12634 1746.5466 621.8949
191.7085 1746.6566 623.73273
217.71613 1746.7563 625.40326
260.07413 1746.6415 623.48029
263.8855 1746.7192 624.78198
274.65671 1746.72 624.79272
283.03741 1746.8319 626.66565
298.74988 1746.8562 627.07178
306.73682 1746.668 623.92413
313.78189 1746.6035 622.84521
349.23969 1746.947 628.58972
141.51813 1747.0599 630.47864
161.3963 1747.1895 632.64532
172.1922 1747.2429 633.53857
189.06015 1747.0568 630.42621
233.31079 1747.4672 637.28748
246.22473 1747.2775 634.11694
260.47064 1747.3455 635.25262
296.41956 1747.2155 633.07825
308.39633 1747.1431 631.86884
332.71893 1747.2085 632.96204
344.10239 1747.3195 634.81812
221.44734 1747.4806 637.51392
192.52307 1747.5341 638.40698
207.75406 1747.6804 640.85376
216.71858 1747.6991 641.16693
227.65973 1747.682 640.88123
249.34726 1747.7091 641.33392
291.28537 1747.9047 644.60425
297.6955 1747.8983 644.49982
304.24493 1747.8296 643.34943
347.172 1747.7065 641.29114
178.35928 1748.0975 647.82947
188.96381 1748.3424 651.92505
197.71048 1748.0637 647.26562
228.67776 1748.0616 647.22894
250.49329 1748.1205 648.21375
256.3092 1748.2079 649.6745
274.73105 1748.2869 650.99609
313.92719 1748.0342 646.76843
327.49274 1748.0277 646.66272
341.53076 1748.1342 648.44287
345.94241 1748.0305 646.70935
176.18889 1748.6663 657.34015
182.86642 1748.6611 657.25372
216.13405 1748.5742 655.80188
232.16245 1748.4227 653.2699
259.31323 1748.7751 659.16016
272.58392 1748.6954 657.83002
279.30725 1748.6715 657.42902
289.01035 1748.4436 653.61731
342.14874 1748.671 657.41907
347.47928 1748.4987 654.53821
161.18121 1748.9767 662.53204
182.46863 1748.9596 662.24567
200.14316 1748.9808 662.60229
205.22781 1749.0809 664.27405
237.981 1749.0966 664.53699
244.91626 1748.9319 661.78137
261.62561 1749.1893 666.08801
309.22192 1749.1196 664.92139
318.27921 1748.8562 660.51703
