# .PCD v0.7 - Point Cloud Data file format
VERSION 0.7
FIELDS x y z
SIZE 4 4 4
TYPE F F F
COUNT 1 1 1
WIDTH 178
HEIGHT 1
VIEWPOINT 0 0 0 1 0 0 0
POINTS 178
DATA ascii
31.579937 59.861774 300.60263
32.539375 59.777836 300.46143
30.392801 59.965633 301.53632
31.363598 59.880699 301.53296
32.616539 59.77108 301.39835
33.452492 59.697948 301.43527
30.842402 59.9263 302.39893
31.498262 59.868916 302.66959
32.372154 59.792461 302.52814
33.48616 59.694996 302.41495
29.618786 59.966644 303.49225
30.490648 59.957073 303.50821
31.465525 59.87178 303.4422
32.478546 59.783157 303.39542
33.56847 59.687801 303.3909
30.410559 59.964081 304.52377
31.685003 59.852585 304.52423
32.540363 59.777752 304.45877
33.49815 59.693951 304.44952
30.442472 59.961292 305.51685
31.454708 59.872723 305.52002
32.434517 59.78701 305.43765
33.400696 59.70248 305.56262
29.652475 59.969597 306.60144
30.504694 59.955845 306.49805
31.543884 59.864929 306.42661
32.475063 59.783459 306.46762
33.483021 59.695274 306.32925
30.485334 59.957546 307.63416
31.304358 59.885883 307.51431
32.634968 59.76947 307.54263
33.540043 59.690281 307.50351
30.395195 59.965427 308.52939
31.523682 59.866692 308.46024
32.422413 59.788067 308.43289
33.54369 59.689964 308.28384
31.353281 59.881603 309.66177
32.409405 59.789204 309.4761
32.937122 65.995583 299.20508
33.516266 65.9133 299.23087
31.489552 66.142776 299.54913
32.448723 66.115723 299.52585
33.275452 66.036331 299.62314
34.6516 65.865654 300.38971
29.655653 66.178146 300.52698
30.563969 66.340271 300.54822
31.339254 66.401154 300.534
32.546936 66.342789 300.46396
33.433083 66.236931 300.54739
35.667 65.770638 301.60449
27.932535 66.103348 301.93976
28.53664 66.159866 301.43146
29.512543 66.497536 301.52243
30.605091 66.734451 301.59766
31.492622 66.769844 301.51437
32.389999 66.730469 301.50723
33.526192 66.528091 301.48969
34.540936 66.219383 301.50137
35.373672 66.022774 301.9617
27.665958 66.175705 302.46881
28.614574 66.693085 302.56567
29.45484 66.829002 302.27734
30.079782 66.939392 302.19324
33.756828 66.812515 302.24091
34.580864 66.58065 302.36899
35.385277 66.301338 302.60303
36.005268 66.018333 302.82608
29.612232 67.167336 302.7565
30.66901 67.30159 302.60403
31.578243 67.283928 302.46735
32.597618 67.324883 302.6272
33.268444 67.199844 302.64658
36.618748 65.790855 303.51831
26.845606 66.166054 303.7627
27.58013 66.623619 303.53598
28.087406 66.776947 303.20959
34.732754 66.940048 303.12259
35.565712 66.55864 303.36456
36.172981 66.090424 303.33105
28.60537 67.221115 303.50946
29.506289 67.60112 303.49884
30.55743 67.837486 303.41232
31.582243 67.793541 303.20389
32.607819 67.726204 303.20642
33.586193 67.671005 303.49237
34.412987 67.276665 303.42108
35.300125 67.036514 303.97198
29.802956 68.002289 303.95334
30.705175 68.214264 303.90997
31.501053 68.204857 303.77493
32.404064 68.133072 303.72543
36.777092 65.83783 304.49747
26.691257 66.324448 304.57935
27.189594 66.71286 304.40448
35.772377 66.795799 304.48111
36.256573 66.334503 304.35437
27.635355 67.159935 304.6416
28.455675 67.676567 304.57547
29.122049 67.928978 304.32761
33.981441 67.851273 304.03125
34.447578 67.714447 304.34589
35.252792 67.24321 304.58966
29.609272 68.244431 304.66528
30.487726 68.416351 304.4277
31.465042 68.582985 304.54599
32.362968 68.502884 304.44464
33.401489 68.286385 304.56912
34.03392 68.000603 304.44904
36.871563 65.750542 305.31961
26.767275 66.378662 305.45499
27.295294 66.794174 305.60516
35.768562 66.807434 305.4541
36.377705 66.243073 305.51291
27.632097 67.133575 305.42075
28.390146 67.601669 305.49008
29.140594 67.936325 305.64417
34.57515 67.708969 305.41925
35.213692 67.234489 305.59601
29.559017 68.148544 305.53687
30.391716 68.435379 305.48016
31.54217 68.57029 305.47913
32.572269 68.452705 305.58282
33.549397 68.17363 305.58673
36.636623 65.761292 306.53589
26.813248 66.067184 306.42615
27.491829 66.604164 306.37775
28.196379 66.856743 306.75388
34.899391 66.845757 306.858
35.588474 66.672714 306.34036
36.110001 66.273048 306.33698
28.601633 67.206955 306.50995
29.414362 67.547951 306.53314
30.300661 67.691277 306.71735
31.526093 67.847946 306.70526
32.715923 67.786163 306.68027
33.345749 67.71286 306.55774
34.366673 67.335503 306.50034
35.213318 67.037415 306.15598
29.975508 68.037025 306.07251
30.67808 68.142105 306.17545
31.631063 68.217331 306.19437
32.344772 68.18898 306.20984
33.10368 68.081993 306.13403
35.866734 65.914108 307.65607
27.55163 66.137932 307.45392
28.37524 66.537674 307.53378
29.638094 66.90506 307.6662
30.468571 66.943954 307.91724
32.926525 66.887901 307.97897
33.83176 66.750359 307.83371
34.490517 66.715439 307.44543
35.553139 66.236084 307.31207
29.808094 67.212433 307.23993
30.566504 67.35128 307.28336
31.4655 67.333435 307.44217
32.605267 67.299416 307.39529
33.324871 67.145927 307.40384
34.001987 67.175323 307.02734
34.893097 65.964088 308.93277
35.515427 65.812164 308.49948
28.545179 66.22287 308.38168
29.379169 66.487846 308.42191
30.496935 66.672104 308.50461
31.533234 66.777512 308.46277
32.439484 66.751968 308.44324
33.489597 66.613174 308.3147
34.484596 66.276718 308.38565
35.122353 66.022758 308.37332
34.756905 65.841583 309.58566
30.488852 66.304962 309.53345
31.55187 66.403595 309.46155
32.53046 66.311119 309.64053
33.436489 66.222275 309.48886
34.263561 66.057671 309.35129
33.677921 65.943413 310.44064
31.3916 66.130692 310.49167
32.573704 66.093155 310.51398
33.410019 66.070816 310.09436
