# .PCD v0.7 - Point Cloud Data file format
VERSION 0.7
FIELDS x y z
SIZE 4 4 4
TYPE F F F
COUNT 1 1 1
WIDTH 1611
HEIGHT 1
VIEWPOINT 0 0 0 1 0 0 0
POINTS 1611
DATA ascii
15.551012 56.237701 282.43918
16.219751 56.549538 282.39651
17.064178 56.943302 282.40616
42.876289 56.971066 282.53372
43.568771 56.648151 282.42236
44.405331 56.258064 282.54077
17.750425 57.263306 282.43143
18.486856 57.606712 282.53168
19.245348 57.960396 282.30731
40.925308 57.880821 282.52567
41.313919 57.699612 282.54739
42.665825 57.069206 282.1824
19.521801 58.086189 282.24869
20.492825 58.392658 282.45392
21.53051 58.670704 282.60324
22.469282 58.922249 282.39069
37.745701 58.864647 282.81161
38.589912 58.638439 282.46838
39.332912 58.439358 282.59674
40.348576 58.14402 282.51324
22.853664 59.025246 282.01462
23.46314 59.188549 282.48047
24.607697 59.488159 282.47873
25.584206 59.613663 282.68719
26.634403 59.705544 282.73505
27.659962 59.795265 282.55106
28.807087 59.895634 282.61383
29.49622 59.955925 282.49792
30.523304 59.954212 282.38483
31.486324 59.869961 282.47961
32.506802 59.780678 282.48825
33.536438 59.690598 282.51318
34.442291 59.611347 282.50043
35.339912 59.49596 282.49603
36.675293 59.151459 282.40891
37.108898 59.035275 282.38287
12.654528 54.33844 283.57993
13.405998 54.864628 283.49353
46.702465 54.788681 283.40833
13.89639 55.208008 283.69794
14.450335 55.595882 283.65527
15.026061 55.992916 283.20935
45.492134 55.636162 283.49661
46.124359 55.193478 283.40079
15.35502 56.146317 283.54459
16.482485 56.672054 283.32626
17.125809 56.972038 283.5549
42.982304 56.921627 283.53058
43.347527 56.75132 283.4946
44.568848 56.181812 283.58334
17.537333 57.163944 283.50403
18.634628 57.675617 283.51797
19.261383 57.967876 283.99167
40.860489 57.911045 283.20166
41.560474 57.584641 283.55954
42.532486 57.131382 283.6503
19.481554 58.070541 283.44376
20.609198 58.423843 283.5433
21.615694 58.693535 283.42853
22.352356 58.890915 283.24686
37.731613 58.868423 283.5451
38.506283 58.660847 283.53879
39.611141 58.364796 283.68253
40.473721 58.087158 283.35361
22.985336 59.060524 283.03058
23.480335 59.193161 283.42441
24.244095 59.397808 283.64368
25.523476 59.608353 283.44965
26.701834 59.711445 283.57816
27.693579 59.79821 283.41705
28.321859 59.85318 283.49301
29.573067 59.962646 283.64758
30.487444 59.957352 283.48703
31.524656 59.866611 283.49982
32.583092 59.774006 283.67072
33.362331 59.705833 283.52872
34.471771 59.608772 283.7471
35.599323 59.439762 283.38007
36.641323 59.160564 283.53729
37.122215 59.031708 283.54291
13.183802 54.709045 284.37286
46.745842 54.758312 284.48334
13.823518 55.156982 284.58569
14.537806 55.657127 284.38037
45.571918 55.580303 284.50845
46.212162 55.131996 284.47449
15.488813 56.208698 284.67508
16.534573 56.696346 284.41638
17.015457 56.920586 284.58319
42.885174 56.966923 284.50296
43.530182 56.666149 284.63245
44.410835 56.255489 284.40378
17.495331 57.144356 284.17493
18.51248 57.618652 284.47302
19.059633 57.873798 284.41772
40.92881 57.879189 284.74194
41.302979 57.704712 284.37543
42.469971 57.160534 284.75284
19.638081 58.13583 284.45215
20.535154 58.404003 284.62238
21.402052 58.63628 284.59293
22.435619 58.913231 284.65979
37.639542 58.893085 284.41678
38.504658 58.661285 284.64743
39.498798 58.394901 284.55728
40.37669 58.129898 284.46402
22.874908 59.030937 284.28751
23.351276 59.158573 284.59003
24.44311 59.444313 284.50638
25.455414 59.602402 284.43451
26.616661 59.703999 284.58942
27.563688 59.78685 284.54065
28.449606 59.864357 284.27228
29.568317 59.962234 284.52545
30.519712 59.954533 284.62103
31.525818 59.866508 284.50385
32.601955 59.772354 284.34622
33.52121 59.691933 284.52094
34.438366 59.611694 284.50583
35.688667 59.413525 284.42001
36.504959 59.197098 284.57666
13.515085 54.941013 285.08325
46.530029 54.909424 285.55939
13.811505 55.148571 285.46616
14.534942 55.655121 285.60083
45.308594 55.764683 285.46024
46.219395 55.126934 285.44214
15.777013 56.34309 285.52518
16.64616 56.748383 285.42191
17.10603 56.962822 285.52985
42.842659 56.986744 285.01266
43.456032 56.700726 285.53
44.418865 56.251755 285.3884
17.770756 57.272785 285.42273
18.667862 57.691113 285.44339
19.161905 57.92149 285.49106
40.886326 57.898998 285.72925
41.603943 57.564369 285.62317
42.343731 57.219402 285.49744
19.744482 58.178394 285.53577
20.602255 58.421978 285.58441
21.406189 58.63739 285.35516
22.587944 58.954044 285.42499
37.443474 58.945618 285.44272
38.333172 58.70723 285.5928
39.568844 58.376137 285.4913
40.410011 58.113686 285.41928
23.597589 59.224586 285.47424
24.701399 59.509403 285.50998
25.389462 59.596626 285.85916
26.345592 59.680279 285.50235
27.548487 59.785519 285.60287
28.58003 59.875774 285.51993
29.480404 59.954536 285.51382
30.543365 59.952461 285.51611
31.551168 59.864292 285.52567
32.600952 59.772442 285.51523
33.46106 59.697197 285.47708
34.47047 59.608883 285.53699
35.630344 59.43145 285.46973
36.454891 59.210518 285.58701
37.11911 59.032539 285.48984
13.270976 54.770084 286.6423
46.723118 54.77422 286.32086
13.921265 55.225422 286.80344
14.472144 55.611149 286.58389
45.485508 55.640808 286.58594
46.204247 55.137539 286.71387
15.59893 56.260048 286.44217
16.494051 56.677448 286.52203
17.05493 56.938992 286.90924
42.956535 56.933647 286.92398
43.53297 56.664848 286.49948
44.314796 56.300274 286.57385
17.610256 57.197945 286.49609
18.377975 57.555935 286.55478
19.199848 57.939186 286.36139
40.918716 57.883892 286.60297
41.502155 57.611839 286.48691
42.372547 57.205963 286.5303
19.646326 58.139847 286.54559
20.481762 58.38969 286.49481
21.423162 58.641937 286.52515
22.328207 58.884445 286.48532
37.721367 58.871162 286.57376
38.672039 58.616432 286.4245
39.555962 58.379585 286.51035
40.587025 58.038567 286.70285
22.888153 59.034485 286.64835
23.425039 59.178345 286.64951
24.585768 59.48447 286.42938
25.556801 59.611275 286.5199
26.530836 59.696491 286.3775
27.566174 59.787071 286.42853
28.539087 59.872189 286.44904
29.686966 59.972607 286.49765
30.522776 59.954262 286.34747
31.590914 59.860813 286.48141
32.441643 59.786381 286.51389
33.387138 59.703667 286.4823
34.605003 59.597115 286.55927
35.642509 59.428192 286.62201
36.706322 59.143147 286.3541
37.052105 59.050491 286.17377
13.41761 54.872761 287.50159
13.700435 55.070789 287.63199
14.481971 55.618031 287.51309
45.536041 55.605415 287.51456
46.268883 55.092281 287.32758
15.452536 56.191776 287.53448
16.588766 56.721611 287.5224
42.998383 56.914135 287.80969
43.525146 56.668495 287.47888
44.479858 56.223309 287.48447
17.52079 57.156223 287.40234
18.551786 57.636982 287.41705
19.129625 57.906437 287.50604
40.802422 57.938126 287.4454
41.391914 57.663239 287.59531
42.333954 57.223961 287.27017
19.653408 58.13969 287.65176
20.552786 58.408726 287.52896
21.395298 58.634472 287.78287
22.266243 58.867844 287.48245
37.661396 58.887234 287.62939
38.662483 58.618992 287.48038
39.435123 58.411964 287.44049
40.285751 58.162525 287.62283
22.970814 59.056633 287.66028
23.5513 59.212173 287.64771
24.513571 59.467598 287.53894
25.606949 59.615654 287.48657
26.553047 59.698429 287.65173
27.450508 59.776947 287.50336
28.523676 59.870838 287.44724
29.323915 59.940857 287.64224
30.443497 59.961197 287.42075
31.344461 59.882374 287.46796
32.634739 59.769493 287.44046
33.715755 59.674908 287.56757
34.467625 59.609135 287.50729
35.473797 59.472588 287.47491
36.465401 59.207699 287.57178
37.125484 59.030834 287.53345
13.203247 54.72266 288.31177
13.778138 55.125206 288.38864
14.58228 55.688271 288.4205
45.413391 55.691299 288.65555
46.270519 55.091129 288.4115
15.600613 56.260834 288.3714
16.62323 56.737682 288.57315
17.028177 56.926517 288.00107
42.934837 56.943764 288.58704
43.486847 56.686359 288.50366
44.437977 56.24284 288.51419
17.621796 57.203323 288.56894
18.660873 57.687851 288.48871
19.18679 57.933094 288.61926
40.879318 57.902267 288.43713
41.678024 57.529831 288.53705
42.562 57.117622 288.77188
19.408245 58.036358 288.52216
20.577427 58.415325 288.45941
21.548544 58.675537 288.5477
22.32229 58.882858 288.522
37.656017 58.888676 288.1828
38.461021 58.67297 288.42133
39.570637 58.375656 288.46484
40.538815 58.061047 288.39444
22.920845 59.043247 288.18704
23.512527 59.20179 288.6246
24.625845 59.489655 288.55084
25.58934 59.614113 288.55258
26.450447 59.689457 288.49457
27.562366 59.786736 288.59271
28.405088 59.860462 288.52939
29.462852 59.953011 288.48132
30.526363 59.953953 288.42316
31.607439 59.859371 288.59039
32.421665 59.788132 288.36191
33.458656 59.697411 288.63776
34.329967 59.621174 288.39319
35.51022 59.462135 288.46204
36.535522 59.188915 288.46295
37.157829 59.022163 288.48276
13.298634 54.789452 289.58002
14.572758 55.681599 289.52975
15.021001 55.990555 289.44388
45.598282 55.56184 289.54559
46.249283 55.105999 289.51395
15.553085 56.238674 289.37112
16.666906 56.758053 289.45129
17.058605 56.940704 289.66989
42.888859 56.965202 289.42834
43.441143 56.707668 289.48196
44.547619 56.191711 289.50601
17.610157 57.197899 289.44577
18.424583 57.577675 289.55505
19.076107 57.881481 289.4491
40.893234 57.895779 289.55463
41.463009 57.630085 289.5416
42.368958 57.207638 289.42844
19.502106 58.080128 289.60397
20.313658 58.34465 289.5083
21.600424 58.689438 289.54178
22.621386 58.963005 289.38467
37.680241 58.882179 289.71512
38.484581 58.666656 289.46786
39.332375 58.439491 289.50912
40.175369 58.207382 289.07388
22.82284 59.016983 289.39062
23.381945 59.166794 289.46942
24.620857 59.490871 289.47937
25.636345 59.618229 289.50607
26.370594 59.682468 289.58524
27.356548 59.76873 289.46939
28.611107 59.878483 289.54996
29.435194 59.950588 289.5174
30.346495 59.969688 289.56876
31.419724 59.87579 289.43958
32.63586 59.76939 289.59232
33.553288 59.689129 289.65887
34.505535 59.605816 289.37411
35.536617 59.4547 289.45743
36.437786 59.215099 289.70303
37.138504 59.027344 289.34323
13.747602 55.103821 290.37009
14.382915 55.548676 290.57782
45.279022 55.785389 290.6662
15.436338 56.184227 290.43726
16.567987 56.711922 290.44131
17.063187 56.942841 290.53522
42.818985 56.997784 290.84375
43.511379 56.674919 290.32556
44.545197 56.192841 290.41565
17.599285 57.192829 290.5405
18.559475 57.640572 290.57071
40.948399 57.870056 290.64398
41.359901 57.678173 290.64346
42.411358 57.187866 290.64661
19.506565 58.082203 290.53052
20.432865 58.376591 290.36734
21.540169 58.67329 290.43732
22.444271 58.915546 290.47287
37.636982 58.893776 290.46088
38.393909 58.690952 290.39551
39.505817 58.393024 290.45065
40.422474 58.110233 290.61502
22.984468 59.060295 290.87079
23.410179 59.174358 290.60706
24.456917 59.454094 290.46411
25.475588 59.604168 290.64157
26.416876 59.686516 290.70428
27.635672 59.793152 290.48642
28.481731 59.867168 290.46313
29.420691 59.949318 290.6102
30.421082 59.963161 290.5654
31.497229 59.869007 290.51807
32.459507 59.784821 290.5242
33.795372 59.66795 290.64078
34.487976 59.607349 290.48505
35.569096 59.445488 290.48318
36.443264 59.213627 290.36249
13.940403 55.238823 291.93375
14.393154 55.555843 291.54248
15.009171 55.985039 291.51068
45.473652 55.649109 291.60083
15.6351 56.276917 291.59344
16.581938 56.718433 291.62744
17.040279 56.932159 291.44672
42.830288 56.992516 291.91196
43.534107 56.664318 291.27164
44.647202 56.145275 291.53528
17.605648 57.195793 291.48376
18.550526 57.636398 291.53577
19.230978 57.953693 291.50473
40.771427 57.952576 291.50604
41.603348 57.564648 291.75247
42.421818 57.182983 291.52255
19.697968 58.156551 291.43127
20.484201 58.390343 291.54062
21.448057 58.648609 291.55585
22.417908 58.908489 291.46503
37.655212 58.888889 291.58936
38.566277 58.644768 291.43832
39.441212 58.410332 291.52426
40.378357 58.12896 291.47269
22.906013 59.039268 291.43332
23.234142 59.12719 291.53375
24.52965 59.469315 291.48193
25.469656 59.603645 291.47995
26.924767 59.730949 291.89539
27.651962 59.794575 291.50623
28.442945 59.863781 291.61453
29.290661 59.937939 291.36084
30.293093 59.974361 291.37097
31.532248 59.865948 291.51114
32.503429 59.780979 291.40018
33.492466 59.69445 291.57318
34.541946 59.602627 291.48801
35.50325 59.463619 291.491
36.485622 59.202282 291.63776
14.431766 55.582886 292.67972
45.429947 55.67971 292.37875
15.449281 56.190269 292.55197
16.563816 56.709976 292.41696
17.04232 56.933113 292.11646
43.500332 56.680065 292.29605
44.453266 56.235703 292.53574
17.608023 57.196896 292.50266
18.330439 57.533772 292.34763
19.161455 57.921284 292.19617
40.818668 57.930546 292.51965
41.573555 57.578541 292.24057
42.348045 57.217384 292.59598
19.676147 58.155869 292.4115
20.531914 58.40313 292.69858
21.481102 58.657463 292.55832
22.352839 58.891045 292.47009
37.791397 58.852402 292.53531
38.540859 58.651581 292.42984
39.466579 58.40353 292.5163
40.049793 58.247265 292.46542
22.873295 59.030502 292.56717
23.298445 59.144421 292.44266
24.438477 59.449894 292.56229
25.655853 59.619938 292.36389
26.542587 59.697514 292.54135
27.510221 59.782169 292.44052
28.356363 59.856201 292.45569
29.474524 59.954021 292.54218
30.537561 59.952972 292.61133
31.435177 59.874439 292.46271
32.474136 59.783543 292.40842
33.472122 59.696228 292.47098
34.509075 59.605503 292.42856
35.523212 59.459263 292.70135
36.549362 59.185204 292.57248
37.175865 59.01733 292.50522
14.549918 55.665615 293.62994
15.001788 55.981598 293.3775
45.34362 55.740154 293.4566
15.409096 56.171528 293.53806
16.337749 56.604565 293.54428
17.091255 56.955929 293.38458
43.550995 56.656441 293.44016
44.45509 56.234859 293.70895
17.552025 57.170792 293.46985
18.508654 57.616875 293.46255
40.808289 57.935387 293.42688
41.494671 57.615326 293.49957
42.336887 57.222591 293.44336
19.742939 58.181114 293.34906
20.517612 58.3993 293.37405
21.559931 58.678589 293.34717
22.37566 58.89716 293.50681
37.633781 58.894634 293.59937
38.569187 58.643993 293.4426
39.48457 58.398708 293.56332
40.395226 58.12368 293.39932
22.897364 59.036953 293.53003
23.561144 59.214813 293.37881
24.415224 59.443661 293.48114
25.354712 59.593594 293.51901
26.466431 59.690849 293.40662
27.607098 59.790649 293.48685
28.635654 59.880634 293.4964
29.511736 59.957279 293.4892
30.33555 59.970642 293.43381
31.581085 59.861675 293.37674
32.413124 59.788879 293.7124
33.389866 59.70343 293.64163
34.578495 59.59943 293.47617
35.373993 59.498718 293.4881
36.471767 59.205994 293.55197
37.07991 59.043037 293.78711
14.55617 55.669991 294.30646
45.445335 55.668941 294.37442
15.488796 56.208694 294.48294
16.590471 56.722412 294.53101
17.119499 56.969101 294.16522
42.928349 56.946789 294.88928
43.492542 56.683704 294.53009
44.546349 56.192303 294.38501
17.716076 57.247288 294.32297
18.43504 57.582542 294.492
19.22822 57.952408 294.75684
40.817963 57.930878 294.5188
41.52478 57.60128 294.52719
42.309425 57.23539 294.54657
19.57453 58.109825 294.71304
20.59433 58.419861 294.59958
21.661062 58.705685 294.38199
22.439157 58.914177 294.58377
37.589928 58.906384 294.47443
38.454006 58.674854 294.42001
39.662388 58.35107 294.34805
40.437386 58.108345 294.38647
22.817385 59.015522 294.30475
23.535322 59.20789 294.50638
24.679646 59.504459 294.31863
25.521677 59.608196 294.53091
26.494764 59.693325 294.47668
27.462721 59.778015 294.60266
28.508232 59.869484 294.28653
29.576332 59.962933 294.35098
30.419254 59.963318 294.41977
31.469362 59.871449 294.48129
32.667107 59.766659 294.44907
33.429634 59.699944 294.31125
34.567844 59.600361 294.58279
35.504711 59.46233 294.51163
36.618382 59.166706 294.57745
37.174389 59.017723 294.37598
15.038311 55.998627 295.90332
45.479626 55.644928 295.51291
15.594444 56.257954 295.28867
16.56925 56.712517 295.56207
17.095413 56.95787 295.27124
42.842884 56.986641 295.38242
43.375427 56.738316 295.59555
44.482723 56.221966 295.42987
17.547482 57.168674 295.5459
18.339056 57.537788 295.51669
40.869751 57.906727 295.4389
41.4338 57.643707 295.53275
42.336967 57.222553 295.56995
19.718746 58.16436 295.66391
20.52471 58.401199 295.55719
21.674576 58.709309 295.40424
22.221544 58.855869 295.45865
37.569149 58.911949 295.47272
38.514099 58.658749 295.46323
39.491707 58.396801 295.58661
40.252357 58.181934 295.54196
22.777155 59.004742 295.58295
23.504341 59.199593 295.53488
24.53087 59.471909 295.45889
25.42923 59.600109 295.52005
26.52578 59.696045 295.61908
27.690287 59.797924 295.41678
28.510996 59.869732 295.52991
29.581858 59.963413 295.52686
30.624981 59.945316 295.51315
31.496775 59.869049 295.4248
32.566666 59.775444 295.89474
33.750793 59.671848 295.68768
34.473042 59.608658 295.39658
35.606964 59.43285 295.55405
36.604324 59.170475 295.55484
37.236271 59.001144 295.45062
15.032581 55.995956 296.21252
44.97197 55.993832 296.13385
15.762897 56.336506 296.47943
16.488218 56.674732 296.54135
17.04668 56.935143 296.5459
42.86998 56.974007 296.40125
43.573654 56.645878 296.51804
44.387508 56.266373 296.47525
17.559563 57.174309 296.56641
18.442154 57.585865 296.56726
19.146046 57.914093 296.45474
40.833584 57.923592 296.56821
41.518505 57.604206 296.49051
42.404659 57.19099 296.36444
19.898558 58.233429 296.41422
20.702816 58.448925 296.59949
21.463537 58.65276 296.49084
22.384964 58.899658 296.47751
37.641701 58.892509 296.64502
38.47847 58.668301 296.55667
39.625301 58.361004 296.43918
40.275997 58.171131 296.41721
22.884838 59.0336 296.18878
23.342712 59.156277 296.30212
24.495575 59.460213 296.48151
25.154638 59.57608 296.33807
26.377113 59.683033 296.56592
27.492979 59.780666 296.49396
28.602648 59.877747 296.43936
29.456486 59.952446 296.48816
30.44693 59.960896 296.73175
31.372028 59.879963 296.39545
32.367687 59.79285 296.48901
33.43605 59.699383 296.47089
34.617439 59.59602 296.4726
35.483009 59.461159 296.57169
36.553093 59.184204 296.46613
37.104008 59.036583 296.43143
15.031512 55.995457 297.98227
15.44993 56.190567 297.46393
16.565168 56.710613 297.59781
17.135818 56.976711 297.75873
42.898785 56.960571 297.25369
43.44775 56.70459 297.53775
44.575764 56.178585 297.45166
17.4638 57.129654 297.46814
18.547918 57.635185 297.63477
19.186413 57.932919 297.53085
40.848743 57.916523 297.31418
41.444691 57.638634 297.28549
42.26033 57.258293 297.75537
19.617451 58.128437 297.50284
20.535305 58.404037 297.54895
21.40461 58.636971 297.53732
22.357536 58.892303 297.42236
37.568012 58.912258 297.57697
38.52166 58.656723 297.45981
39.562973 58.377705 297.38828
40.19492 58.203548 297.44794
22.761047 59.000427 297.82895
23.47662 59.192162 297.50046
24.472607 59.455261 297.47647
25.539589 59.609764 297.45425
26.497175 59.69355 297.23801
27.586639 59.78886 297.48593
28.525553 59.871002 297.60745
29.569189 59.962315 297.57675
30.502716 59.956017 297.4776
31.393545 59.878082 297.65341
32.570679 59.775093 297.45349
33.416405 59.701103 297.40466
34.526169 59.604012 297.45593
35.450459 59.476421 297.49658
36.415565 59.221054 297.47415
37.121616 59.031864 297.50314
15.038582 55.998753 298.80524
44.996048 55.982605 298.92941
15.510993 56.21904 298.58929
16.505247 56.682671 298.47324
42.970821 56.926983 298.21405
43.524967 56.668579 298.52261
44.7057 56.117996 298.69818
17.636213 57.210049 298.66495
18.595951 57.657581 298.72
19.111506 57.897984 298.37442
40.815033 57.932243 298.5058
41.585213 57.573101 298.61282
42.607716 57.096302 298.4679
19.605766 58.12764 298.46078
20.502943 58.395374 298.5932
21.35815 58.624519 298.5799
22.335476 58.886391 298.5899
37.516483 58.92606 298.37387
38.50066 58.662354 298.44302
39.53801 58.384396 298.54218
40.233562 58.183922 298.50751
22.910517 59.040474 298.25214
23.561316 59.214859 298.62918
24.504902 59.467693 298.54984
25.44936 59.601875 298.37482
26.366377 59.682098 298.47638
27.53746 59.784557 298.39398
28.725973 59.888535 298.34979
29.404638 59.94791 298.51352
30.490387 59.9571 298.57538
31.510139 59.867886 298.42508
32.530331 59.778629 298.52957
33.59137 59.685799 298.53284
34.324131 59.621689 298.2601
35.388641 59.49123 298.44577
36.563145 59.181511 298.41379
37.200954 59.010609 298.32803
15.5474 56.236019 299.34735
16.475847 56.668953 299.42596
17.144161 56.980598 299.43774
42.836811 56.989471 299.0867
43.541637 56.660809 299.35986
44.463242 56.231068 299.54279
17.565489 57.177067 299.39728
18.475187 57.601265 299.64359
19.118839 57.901409 299.63391
40.728374 57.972652 299.38336
41.428398 57.646229 299.49747
42.590473 57.104347 299.43744
19.605509 58.122421 299.45905
20.508638 58.396893 299.38251
21.415709 58.639942 299.49426
22.480051 58.925137 299.35617
37.687695 58.880188 299.43573
38.594528 58.637199 299.52283
39.572807 58.375072 299.51385
40.446892 58.101341 299.52335
22.890657 59.035156 299.34961
23.673191 59.244831 299.49457
24.503565 59.464787 299.54504
25.517818 59.607861 299.5318
26.610247 59.703438 299.50397
27.576622 59.787979 299.41022
28.60182 59.877674 299.43924
29.609035 59.965794 299.39313
30.572113 59.949947 299.58127
31.439459 59.874065 299.50269
32.487869 59.782337 299.53983
33.568256 59.687817 299.35565
34.482124 59.607861 299.60593
35.584797 59.443329 299.66586
36.45203 59.211285 299.49969
37.043812 59.052715 299.8374
44.992146 55.984428 300.34021
15.499523 56.213696 300.44675
16.273865 56.574776 300.38922
42.968277 56.928169 300.07883
43.386497 56.73315 300.603
44.549038 56.191044 300.46878
17.705883 57.242531 300.51813
18.488989 57.607708 300.60242
19.059422 57.873699 300.54718
40.73069 57.971569 300.26944
41.505432 57.610302 300.45517
42.53191 57.131649 300.45203
19.622715 58.128624 300.49844
20.623152 58.427578 300.44806
21.483372 58.658073 300.58267
22.347792 58.88969 300.78363
37.710136 58.874176 300.5105
38.431652 58.680836 300.62634
39.527615 58.387184 300.4397
40.313179 58.159595 300.2803
22.900932 59.03791 300.6131
23.514902 59.202419 300.57428
24.426666 59.446419 300.43463
25.545444 59.610279 300.5029
26.265957 59.673317 300.50449
27.464151 59.778145 300.58221
28.488983 59.867802 300.46939
29.2651 59.935707 300.54541
30.470987 59.95879 300.43323
31.579937 59.861774 300.60263
32.539375 59.777836 300.46143
33.484707 59.695129 300.68427
34.547226 59.602169 300.44675
35.53989 59.445198 300.16318
36.622517 59.165592 300.50421
37.060326 59.04829 300.64441
44.959476 55.99966 301.28769
15.558707 56.241291 301.53381
16.550568 56.7038 301.61041
17.067589 56.944893 301.51227
42.894268 56.962681 301.70816
43.685688 56.593639 301.54688
44.465893 56.22982 301.44931
17.598003 57.192234 301.34668
18.427813 57.579174 301.61093
19.192837 57.935913 301.53015
40.851341 57.915314 301.46439
41.37146 57.672771 301.50546
42.444283 57.172508 301.41107
19.709696 58.165264 301.41211
20.502995 58.395378 301.34677
21.461033 58.652088 301.48969
22.386551 58.900082 301.54187
37.641682 58.892517 301.42987
38.531185 58.654175 301.71802
39.573101 58.374996 301.54224
40.325584 58.152115 301.59662
22.836994 59.020779 301.19479
23.572212 59.217773 301.40244
24.470139 59.458382 301.41614
25.457756 59.602604 301.46173
26.497698 59.693584 301.48703
27.451138 59.777 301.51599
28.477783 59.866825 301.56812
29.715004 59.975063 301.57693
30.392801 59.965633 301.53632
31.363598 59.880699 301.53296
32.616539 59.77108 301.39835
33.452492 59.697948 301.43527
34.337811 59.620491 301.49368
35.471519 59.472496 301.50717
36.37582 59.231701 301.50467
37.133965 59.028557 301.47809
15.5257 56.225903 302.63806
16.508202 56.684044 302.5459
17.158686 56.987377 302.23157
42.870628 56.973701 302.0296
43.518723 56.67149 302.37195
44.437603 56.243011 302.27539
17.679256 57.230122 302.40533
18.344898 57.540512 302.23776
19.214314 57.94593 302.38
41.62701 57.553612 302.45761
42.395351 57.195332 302.53503
19.590651 58.115093 302.46967
20.514809 58.398544 302.50842
21.640575 58.700195 302.642
22.417463 58.908367 302.52942
37.633419 58.894726 302.51306
38.443085 58.67778 302.49405
39.600269 58.367714 302.54901
40.394264 58.123505 302.62378
22.905666 59.039177 302.29767
23.356733 59.160034 302.64182
24.461147 59.449512 302.46964
25.554024 59.611031 302.46075
26.505138 59.694237 302.58124
27.574732 59.787819 302.34592
28.508106 59.869473 302.54196
29.463558 59.953072 302.37915
30.842402 59.9263 302.39893
31.498262 59.868916 302.66959
32.372154 59.792461 302.52814
33.48616 59.694996 302.41495
34.674465 59.591034 302.65176
35.482136 59.468582 302.41028
36.380783 59.230373 302.5094
37.150372 59.024158 302.35385
15.020997 55.990555 303.65582
44.983261 55.988567 303.42883
15.551981 56.238155 303.56525
16.607941 56.730553 303.34976
17.165642 56.990616 303.17615
42.910198 56.955254 303.35229
43.585999 56.640125 303.42618
44.385197 56.267448 303.51364
17.67338 57.227379 303.58765
18.556126 57.639008 303.58386
19.164089 57.922508 303.36752
40.811966 57.93367 303.29401
41.44519 57.638397 303.54205
42.3773 57.203747 303.12967
19.498768 58.078571 303.42767
20.376425 58.361465 303.44299
21.549408 58.675766 303.42108
22.429483 58.911583 303.27115
37.700863 58.876659 303.58856
38.657944 58.620209 303.3768
39.635597 58.358246 303.5502
40.099953 58.233826 303.64337
23.528791 59.206142 303.42114
24.561554 59.481541 303.29697
25.585594 59.613789 303.46704
26.732121 59.714096 303.68231
27.285204 59.762486 303.40884
28.661619 59.882908 303.55194
29.618786 59.966644 303.49225
30.490648 59.957073 303.50821
31.465525 59.87178 303.4422
32.478546 59.783157 303.39542
33.56847 59.687801 303.3909
34.610859 59.596603 303.51425
35.658024 59.42403 303.44397
36.628212 59.164074 303.40756
37.224232 59.004372 303.15295
14.516215 55.642014 304.63736
44.964806 55.997177 304.46594
45.481014 55.643955 304.57611
15.634995 56.276867 304.64325
16.44272 56.653515 304.62057
43.50996 56.675575 304.38998
44.360207 56.279106 304.48831
17.506456 57.14954 304.53345
18.515026 57.619846 304.36304
19.127064 57.905243 304.38776
40.694889 57.988266 304.46313
41.373386 57.671883 304.35889
42.545994 57.12508 304.42065
19.54059 58.092819 304.56287
20.446539 58.380257 304.35895
21.603163 58.69017 304.28268
22.440256 58.914471 304.4223
37.811127 58.847115 304.28629
38.443081 58.677784 304.64612
39.402397 58.420734 304.49725
40.436111 58.10598 304.547
22.937002 59.047569 304.59723
23.321257 59.150532 304.67929
24.598345 59.488167 304.55597
25.504137 59.606663 304.59521
26.478279 59.691883 304.53235
27.540663 59.78484 304.39755
28.505783 59.869274 304.43616
29.413797 59.948711 304.45621
30.410559 59.964081 304.52377
31.685003 59.852585 304.52423
32.540363 59.777752 304.45877
33.49815 59.693951 304.44952
34.43251 59.612202 304.45999
35.474022 59.471855 304.61639
36.430477 59.217052 304.47095
37.108238 59.03545 304.40375
14.616173 55.712006 305.39047
45.511692 55.622471 305.62787
15.441942 56.18684 305.69873
16.547886 56.702553 305.52472
42.91716 56.952003 305.44366
43.462379 56.697762 305.6991
44.337437 56.289719 305.51108
17.691887 57.236008 305.43851
18.349091 57.542465 305.5636
19.116465 57.900299 305.47943
40.917599 57.884418 305.70667
41.660603 57.537949 305.36395
42.282818 57.247803 305.55338
19.528633 58.086784 305.51984
20.582733 58.416748 305.41959
21.49789 58.661961 305.52151
22.232878 58.858902 305.59753
37.627056 58.896435 305.52472
38.5019 58.662022 305.57248
39.372078 58.42886 305.48615
40.363495 58.139286 305.41476
22.855988 59.025867 305.52966
23.37409 59.164688 305.55756
24.433329 59.445656 305.45154
25.21772 59.581604 305.71002
26.557896 59.698853 305.34799
27.452715 59.777142 305.56577
28.377831 59.858078 305.51099
29.48933 59.955318 305.44919
30.442472 59.961292 305.51685
31.454708 59.872723 305.52002
32.434517 59.78701 305.43765
33.400696 59.70248 305.56262
34.417156 59.613544 305.56317
35.668255 59.421288 305.4791
36.485939 59.202194 305.45221
37.23608 59.001198 305.2226
14.493842 55.626343 306.40765
45.600941 55.559982 306.44046
15.414519 56.174057 306.23993
16.536467 56.697231 306.61804
17.072062 56.94698 306.83487
42.821957 56.996399 306.61441
43.572594 56.646374 306.47595
44.453693 56.235512 306.45917
17.691702 57.23592 306.70801
18.3936 57.563217 306.61472
19.102816 57.893936 306.63919
40.858967 57.911758 306.4827
41.396023 57.661324 306.63794
42.418732 57.184425 306.63715
19.593945 58.114788 306.58554
20.499426 58.394436 306.5563
21.566904 58.680462 306.59689
22.411127 58.906666 306.65302
37.646484 58.891228 306.47647
38.600872 58.635498 306.46671
39.252026 58.461025 306.36905
40.407265 58.118328 306.41901
22.87039 59.029724 306.27878
23.396204 59.170616 306.59811
24.594805 59.491779 306.46518
25.396294 59.597229 306.60254
26.438368 59.688396 306.58197
27.546946 59.785385 306.42883
28.564049 59.874371 306.60339
29.652475 59.969597 306.60144
30.504694 59.955845 306.49805
31.543884 59.864929 306.42661
32.475063 59.783459 306.46762
33.483021 59.695274 306.32925
34.492516 59.606953 306.59274
35.577862 59.445515 306.4982
36.35014 59.238586 306.55029
37.117664 59.032928 306.68863
14.411032 55.568359 307.48425
45.432514 55.677914 307.5047
15.628215 56.273708 307.30826
16.660793 56.755199 307.58545
42.890316 56.964523 307.56683
43.521839 56.670036 307.41666
44.453407 56.235645 307.75381
17.644054 57.213703 307.72641
18.521402 57.622822 307.40875
19.186214 57.932827 307.33813
40.844185 57.918652 307.46609
41.472641 57.625595 307.34576
42.345478 57.218586 307.45599
19.643618 58.140038 307.34662
20.387875 58.364536 307.60779
21.500443 58.662651 307.65039
22.30155 58.877304 307.50027
37.595604 58.904861 307.54602
38.484112 58.666786 307.50928
39.439236 58.410862 307.61526
40.31731 58.15543 307.57904
22.930531 59.045837 307.46313
23.60574 59.226761 307.43723
24.606173 59.490185 307.52133
25.72282 59.625793 307.60846
26.394852 59.684582 307.41919
27.54512 59.785225 307.50977
28.409004 59.860813 307.47214
29.539164 59.959679 307.5452
30.485334 59.957546 307.63416
31.304358 59.885883 307.51431
32.634968 59.76947 307.54263
33.540043 59.690281 307.50351
34.596924 59.59782 307.43137
35.466118 59.475456 307.57925
36.668484 59.153278 307.5661
37.121246 59.031967 307.31009
13.786577 55.131115 308.44272
14.737696 55.797096 308.35776
45.423595 55.684155 308.50726
15.433208 56.18277 308.56189
16.230812 56.554699 308.68832
17.125772 56.972027 308.31
43.45554 56.700962 308.59592
44.400639 56.26025 308.31699
17.514793 57.153431 308.36536
18.561865 57.641682 308.48868
19.147501 57.914772 308.57257
40.743454 57.965622 308.46204
41.563904 57.583042 308.49097
42.563499 57.116917 308.54565
19.650335 58.137722 308.47687
20.620859 58.426968 308.47726
21.443756 58.647461 308.33609
22.235456 58.859592 308.50223
37.596146 58.904713 308.39441
38.357704 58.700661 308.32288
39.439159 58.410881 308.60538
40.287312 58.170918 308.5549
23.408779 59.173985 308.47952
24.440298 59.447742 308.56943
25.538118 59.609638 308.64188
26.481821 59.6922 308.28992
27.507479 59.781929 308.47672
28.670563 59.883686 308.64679
29.493099 59.95565 308.47614
30.395195 59.965427 308.52939
31.523682 59.866692 308.46024
32.422413 59.788067 308.43289
33.54369 59.689964 308.28384
34.412594 59.613941 308.45505
35.58604 59.443321 308.50732
36.472466 59.205811 308.44647
37.155647 59.022747 308.49335
13.848951 55.174789 309.06876
14.632416 55.723381 309.44971
15.030317 55.9949 309.48206
45.498329 55.631817 309.48093
46.184837 55.151127 309.36542
15.503467 56.215534 309.53494
16.461311 56.662182 309.5571
42.884621 56.967178 309.48114
43.683693 56.594563 309.55255
44.461174 56.232029 309.5072
17.506601 57.149605 309.44644
18.492447 57.609322 309.3988
19.125114 57.904335 309.39386
40.932564 57.877441 309.74438
41.364624 57.675957 309.35583
42.311855 57.234261 309.50726
19.793447 58.197845 309.42725
20.605827 58.422939 309.62357
21.431866 58.644276 309.7374
22.348156 58.889786 309.67151
37.586739 58.907238 309.60605
38.410011 58.686642 309.59094
39.455753 58.406441 309.42856
40.381721 58.123009 309.35275
22.887068 59.034195 309.43604
23.39245 59.169613 309.5618
24.369139 59.42762 309.5087
25.344326 59.592674 309.32175
26.604801 59.702953 309.43457
27.393017 59.771919 309.49722
28.464668 59.865677 309.5387
29.486101 59.955044 309.46979
30.594669 59.947971 309.75406
31.353281 59.881603 309.66177
32.409405 59.789204 309.4761
33.519344 59.692101 309.53604
34.484535 59.607655 309.58301
35.515224 59.462299 309.37781
36.548645 59.185398 309.59061
37.198914 59.011154 309.55457
13.767611 55.117832 310.54538
14.404235 55.563602 310.4693
44.962738 55.998138 310.46695
45.551311 55.59473 310.62094
46.254494 55.102356 310.12573
15.590084 56.25592 310.69324
16.50614 56.683083 310.60953
17.009439 56.917778 310.43668
42.825428 56.994781 310.76819
43.589241 56.638611 310.43228
44.456909 56.234005 310.32834
17.645077 57.214184 310.57843
18.408918 57.57037 310.55725
19.057171 57.872658 310.51132
40.866795 57.908108 310.40646
41.518692 57.604118 310.41708
42.227093 57.273788 310.52295
19.511002 58.073925 310.53369
20.332048 58.349579 310.75555
21.484484 58.658375 310.49185
22.379929 58.898308 310.55008
37.555927 58.915497 310.30743
38.629105 58.627937 310.61887
39.657452 58.35239 310.42322
40.279228 58.167599 310.38693
22.917761 59.042416 310.36615
23.517431 59.203102 310.48691
24.408047 59.441742 310.34772
25.494286 59.605797 310.60876
26.600487 59.702579 310.55038
27.592432 59.789368 310.48151
28.45723 59.865025 310.49124
29.383011 59.946022 310.39984
30.422915 59.962997 310.4938
31.388306 59.878544 310.57602
32.439117 59.786602 310.64511
33.587246 59.686157 310.44434
34.646008 59.593525 310.29977
35.386944 59.492443 310.37305
36.339859 59.241341 310.57928
37.135746 59.028076 310.33047
13.246768 54.753136 311.46051
13.849921 55.175468 311.51221
14.589371 55.693237 311.54126
15.003991 55.982624 311.70062
44.976143 55.991886 311.75494
45.595596 55.563721 311.55273
46.229702 55.119717 311.54074
15.500959 56.214367 311.58923
16.414045 56.640141 311.44827
17.105682 56.962658 311.91003
42.908421 56.956085 311.09445
43.517838 56.671909 311.42905
44.42535 56.248726 311.42615
17.479378 57.136917 311.55286
18.547716 57.635094 311.52103
19.244938 57.960205 311.37704
40.736534 57.968849 311.88345
41.696194 57.521351 311.73218
42.516422 57.138874 311.42068
19.673536 58.152431 311.80853
20.442701 58.379223 311.44839
21.458229 58.65134 311.4447
22.604813 58.958565 311.35254
37.464733 58.93993 311.55011
38.623295 58.629498 311.31366
39.601643 58.367344 311.58551
40.399387 58.125473 311.5459
22.833977 59.019966 311.74728
23.487209 59.195 311.49875
24.423281 59.445824 311.57706
25.495811 59.605934 311.41428
26.364862 59.681965 311.7561
27.422628 59.774509 311.60278
28.691689 59.88554 311.46954
29.496429 59.955944 311.51288
30.43269 59.962139 311.35855
31.716305 59.849842 311.59296
32.605778 59.772018 311.45279
33.496082 59.694134 311.64139
34.308479 59.623055 311.57675
35.264942 59.518147 311.58673
36.520508 59.192932 311.46899
37.150635 59.02409 311.69476
13.415342 54.871174 312.49585
13.74505 55.102036 312.64417
14.606297 55.705093 312.39905
44.988213 55.986259 312.55908
45.631821 55.538353 312.54834
46.213146 55.131306 312.34067
15.531178 56.228455 312.49594
16.528357 56.693447 312.43564
17.069151 56.945621 312.28772
42.894691 56.962482 312.37317
43.566647 56.649155 312.48843
44.488136 56.219448 312.4505
17.657549 57.219997 312.44687
18.57725 57.648857 312.55624
19.311966 57.991463 312.61121
40.921001 57.882828 312.44592
41.374763 57.671234 312.43188
42.44257 57.173313 312.5022
19.693895 58.157707 312.44122
20.436064 58.377453 312.46063
21.44552 58.647938 312.51105
22.403236 58.904552 312.47794
37.505608 58.928974 312.47897
38.373322 58.696472 312.60382
39.506226 58.392914 312.40747
40.363392 58.135273 312.59479
22.856247 59.025936 312.75644
23.549517 59.2117 312.5036
24.460499 59.448414 312.51401
25.323092 59.59082 312.51166
26.57765 59.700584 312.34717
27.486816 59.780125 312.56836
28.766714 59.892101 312.5827
29.401932 59.947674 312.50055
30.51734 59.954735 312.40546
31.690001 59.852146 312.71872
32.369507 59.792698 312.46323
33.518261 59.692196 312.5712
34.462215 59.609608 312.59647
35.357628 59.501289 312.50122
36.379078 59.230827 312.49371
37.128128 59.030121 312.80902
13.335005 54.814919 313.39951
46.62682 54.841648 313.47348
13.92234 55.226173 313.56409
14.480384 55.61692 313.51443
45.45013 55.665577 313.45212
46.219906 55.126568 313.58014
15.545117 56.234955 313.6962
16.545414 56.701393 313.4046
17.074467 56.948101 313.55386
42.823208 56.995819 313.79028
43.369774 56.740948 313.47812
44.587612 56.173069 313.63788
17.575897 57.181923 313.41962
18.608974 57.663654 313.45233
19.169832 57.925186 313.50308
40.779514 57.948811 313.44748
41.56435 57.582836 313.50266
42.541691 57.127087 313.59552
19.673485 58.149815 313.46359
20.545519 58.40678 313.51492
21.511919 58.665718 313.40387
22.283134 58.872368 313.31818
37.722557 58.870842 313.65213
38.592922 58.63763 313.54129
39.358234 58.432564 313.66388
40.397438 58.122082 313.50494
22.889372 59.034817 313.41617
23.376604 59.165371 313.52191
24.409973 59.441742 313.5397
25.391102 59.596767 313.42169
26.557001 59.698776 313.34863
27.473621 59.778969 313.30225
28.483194 59.867294 313.55481
29.455988 59.952412 313.51712
30.566181 59.950466 313.32632
31.544209 59.864902 313.38025
32.540386 59.777744 313.4313
33.559875 59.688549 313.57977
34.414371 59.613792 313.48431
35.372929 59.490913 313.58502
36.555748 59.183487 313.32126
13.282636 54.778248 314.59644
46.575466 54.877605 314.46786
13.813462 55.149937 314.27774
14.361238 55.533497 314.53534
45.356625 55.731056 314.48129
46.285316 55.080772 314.40265
15.286699 56.114452 314.45557
16.571594 56.713608 314.45383
17.122942 56.970703 314.41885
42.908493 56.956047 314.54913
43.551785 56.656071 314.51288
44.423798 56.249451 314.50891
17.534332 57.162537 314.4892
18.54727 57.634884 314.61359
19.031519 57.860687 314.49017
40.895012 57.894947 314.65747
41.421593 57.649403 314.54907
42.354698 57.214287 314.53381
19.735592 58.173504 314.92035
20.59589 58.420269 314.50378
21.415575 58.639908 314.74121
22.37512 58.897018 314.47427
37.61747 58.899006 314.75885
38.245903 58.730618 314.35794
39.507195 58.392658 314.42957
40.353184 58.135838 314.47836
22.897928 59.037098 314.67209
23.440397 59.182461 314.60367
24.362339 59.427933 314.75165
25.365393 59.594528 314.56042
26.739809 59.714771 314.53381
27.402037 59.772705 314.43088
28.56922 59.874825 314.37741
29.576384 59.96294 314.44199
30.447376 59.960861 314.61673
31.427879 59.87508 314.4707
32.440693 59.786465 314.51541
33.589905 59.685921 314.53754
34.602287 59.597351 314.57364
35.401234 59.487694 314.69571
36.431931 59.216663 314.50336
37.088726 59.04068 314.45691
13.282741 54.778328 315.4064
13.788342 55.132355 315.42108
14.502694 55.632542 315.47479
45.459091 55.659302 315.29028
46.267723 55.093094 315.59082
15.533156 56.229385 315.56592
16.430746 56.647934 315.51797
17.029154 56.926971 315.81531
42.881317 56.968719 315.33017
43.513458 56.67395 315.44601
44.627411 56.154499 315.43054
17.48093 57.137638 315.5892
18.297062 57.518208 315.68909
19.217995 57.947643 315.32632
40.801582 57.938519 315.6084
41.480545 57.621914 315.45032
42.490063 57.151165 315.61429
19.614519 58.124928 315.52341
20.284325 58.336792 315.70654
21.498571 58.662144 315.55643
22.40748 58.905685 315.6264
37.742622 58.865471 315.60416
38.395039 58.690655 315.60464
39.594521 58.369251 315.41336
40.259163 58.171974 315.65546
22.900965 59.037918 315.49149
23.275272 59.13821 315.71545
24.435053 59.446579 315.39435
25.653584 59.619736 315.56027
26.656132 59.707447 315.48529
27.408943 59.773315 315.70703
28.591284 59.876755 315.49689
29.379959 59.945751 315.53476
30.417088 59.963509 315.30615
31.421427 59.875637 315.47473
32.281033 59.80043 315.54117
33.412464 59.701447 315.63104
34.519478 59.604588 315.21222
35.626064 59.432602 315.46466
36.65321 59.157379 315.57443
13.314477 54.800541 316.74402
46.71106 54.782665 316.59909
13.782626 55.128349 316.64001
14.566728 55.677383 316.57712
15.019288 55.989758 316.14493
44.983837 55.988297 316.52817
45.58506 55.571098 316.57562
46.152218 55.173965 316.43341
15.36113 56.149158 316.3508
16.485933 56.67366 316.55423
17.157263 56.98671 316.42523
42.852287 56.982254 316.396
43.494534 56.682774 316.51291
44.418606 56.251865 316.47873
17.68269 57.23172 316.72549
18.561504 57.641521 316.57507
19.149227 57.915577 316.44135
41.565628 57.582233 316.49911
42.362137 57.210815 316.40027
19.531609 58.087334 316.55566
20.382421 58.363075 316.40964
21.416998 58.640289 316.44141
22.502325 58.931107 316.29236
37.744774 58.864895 316.58002
38.512894 58.659073 316.53064
39.414429 58.417511 316.53146
40.467892 58.092396 316.48935
22.854433 59.025448 316.63962
23.299164 59.144611 316.55945
24.53824 59.470528 316.47418
25.51639 59.607735 316.23111
26.630568 59.705212 316.51859
27.537951 59.784599 316.43332
28.614128 59.87875 316.46506
29.331732 59.941536 316.48517
30.521416 59.954384 316.46042
31.571705 59.862495 316.54678
32.40213 59.789841 316.51178
33.565556 59.688049 316.52304
34.46867 59.609043 316.55032
35.427139 59.480007 316.36145
36.51992 59.193092 316.552
37.061859 59.047878 316.46472
13.204 54.723186 317.69461
46.705555 54.786518 317.53494
13.832524 55.163288 317.58157
14.499123 55.630047 317.55304
15.033583 55.996422 317.88345
45.564194 55.585709 317.57825
46.245525 55.108635 317.33167
15.431652 56.182049 317.45428
16.393955 56.630775 317.38382
17.063852 56.943153 317.84506
42.908127 56.956219 317.54108
43.715687 56.579639 317.69266
44.537983 56.196201 317.59274
17.649343 57.216167 317.72556
18.473274 57.600376 317.54251
19.242439 57.959042 317.71909
40.893963 57.895435 317.47031
41.586334 57.572575 317.44632
42.450832 57.16946 317.44101
19.630302 58.132568 317.70078
20.5249 58.401253 317.4953
21.462564 58.6525 317.40427
22.271511 58.869255 317.35693
37.67915 58.882477 317.59656
38.589577 58.638531 317.34164
39.581264 58.372803 317.4574
40.306889 58.157696 317.50534
22.79615 59.009834 317.70294
23.385576 59.16777 317.53201
24.646509 59.500397 317.56931
25.42375 59.599625 317.44247
26.344057 59.680141 317.31537
27.387238 59.771412 317.71912
28.46945 59.866093 317.50974
29.455536 59.952366 317.57849
30.765808 59.933002 317.4523
31.419504 59.875809 317.50891
32.46785 59.784088 317.45526
33.352234 59.706715 317.43158
34.350082 59.619423 317.3382
35.513199 59.460022 317.39941
36.559677 59.182438 317.6048
37.112675 59.03426 317.48013
12.618992 54.313557 318.49051
13.323759 54.807041 318.55536
46.708485 54.784466 318.38174
13.809225 55.146973 318.6474
14.432408 55.583328 318.52634
45.430977 55.678989 318.44098
46.217175 55.128487 318.74091
15.678396 56.2971 318.26874
16.518106 56.688671 318.45337
17.084116 56.952595 318.60123
42.930084 56.945976 318.58984
43.470276 56.694088 318.68216
44.530796 56.199554 318.47107
17.547934 57.16888 318.53119
18.489513 57.607948 318.23669
19.246931 57.961136 318.18552
40.794228 57.941944 318.45062
41.592735 57.569599 318.59573
42.380817 57.202106 318.41791
19.753473 58.180847 318.70462
20.453175 58.38203 318.5054
21.437387 58.645752 318.60983
22.387913 58.900448 318.62231
37.764351 58.859646 318.4852
38.668301 58.617432 318.49365
39.508045 58.392426 318.71359
40.32431 58.15176 318.5513
22.836926 59.02076 318.89667
23.359392 59.160751 318.31259
24.502752 59.46463 318.51501
25.293674 59.588249 318.57355
26.513561 59.694977 318.53818
27.589348 59.789097 318.56726
28.430113 59.862652 318.42181
29.585798 59.963764 318.27017
30.560349 59.950974 318.50912
31.516815 59.86729 318.45837
32.463707 59.784451 318.50278
33.536858 59.690567 318.49533
34.490074 59.607174 318.42914
35.305801 59.508484 318.54459
36.406013 59.22361 318.56766
37.030472 59.05629 318.53143
12.707664 54.375652 319.57596
13.323932 54.807167 319.59442
46.682793 54.802452 319.63556
13.941273 55.239433 319.23083
14.267552 55.467896 319.34061
15.02759 55.993629 319.64658
45.556431 55.591145 319.36948
46.118591 55.197521 319.4989
15.441411 56.186596 319.39627
16.534033 56.696095 319.50397
17.065107 56.943737 319.46643
42.840691 56.987667 319.53925
43.293285 56.776615 319.54153
44.654179 56.142025 319.34155
17.622662 57.203728 319.6214
18.427811 57.579178 319.50787
19.073217 57.880135 319.51242
40.836254 57.922352 319.79739
41.270954 57.719646 319.55298
42.42416 57.181892 319.47791
19.645803 58.140636 319.47614
20.433559 58.376778 319.56793
21.48761 58.659206 319.65948
22.585526 58.953396 319.69125
37.642426 58.892323 319.61142
38.577831 58.641678 319.51413
39.636299 58.358055 319.60333
40.379276 58.135437 319.4375
22.868235 59.029144 319.19223
23.4893 59.195557 319.25552
24.398726 59.434978 319.63046
25.52063 59.608105 319.42233
26.67429 59.709034 319.37973
27.522135 59.783218 319.38699
28.519474 59.870472 319.38223
29.506023 59.956779 319.55563
30.516321 59.954823 319.52243
31.385534 59.878784 319.35468
32.536091 59.778122 319.72021
33.392578 59.703186 319.66687
34.423107 59.613026 319.37793
35.417561 59.484848 319.37854
36.652832 59.157478 319.483
37.040318 59.05365 319.68872
13.279291 54.775909 320.45102
13.747447 55.103718 320.6582
14.463309 55.604973 320.5484
45.568993 55.582344 320.55685
46.157013 55.170612 320.93619
15.553701 56.238956 320.80042
16.571957 56.713783 320.51361
17.107996 56.963734 320.599
42.874897 56.971714 320.51505
43.562428 56.651108 320.41068
44.472424 56.22678 320.50809
17.676691 57.22892 320.30164
18.495266 57.61063 320.61209
19.051853 57.870171 320.21533
40.797607 57.940369 320.77167
41.485004 57.619835 320.60248
42.363056 57.210388 320.65405
19.694729 58.159065 320.44891
20.613693 58.425049 320.56094
21.518715 58.667542 320.48495
22.259214 58.865959 320.6658
37.711903 58.873699 320.53052
38.556877 58.647285 320.50983
39.420597 58.415852 320.47729
40.249409 58.173733 320.48563
22.85747 59.02626 320.86548
23.520452 59.203903 320.64423
24.366161 59.428791 320.53616
25.641701 59.618694 320.47287
26.631727 59.705311 320.46579
27.562838 59.786777 320.53403
28.38661 59.858849 320.36395
29.495171 59.955837 320.35181
30.595367 59.947914 320.47852
31.514637 59.867485 320.33853
32.444031 59.786175 320.41245
33.607094 59.684418 320.52344
34.539207 59.602875 320.61426
35.386593 59.492142 320.55469
36.532722 59.189663 320.49771
37.166054 59.019958 320.18433
12.543612 54.260777 321.4248
13.30088 54.791031 321.40451
13.838778 55.167664 321.71619
14.558435 55.671577 321.19269
45.452129 55.664181 321.48972
46.176315 55.157097 321.42462
15.605997 56.263344 321.57187
16.361843 56.615803 321.68799
42.906994 56.956745 321.47748
43.319176 56.764545 321.40259
44.375488 56.271973 321.48459
17.608738 57.197239 321.65573
18.560276 57.640949 321.37518
19.116405 57.900269 321.46777
40.839886 57.920654 321.24762
41.633766 57.550461 321.45847
42.398983 57.193634 321.43756
19.693972 58.15987 321.41232
20.429781 58.375767 321.53528
21.392675 58.63377 321.38913
22.274406 58.870033 321.61868
37.579121 58.909275 321.29739
38.562515 58.645775 321.42444
39.537094 58.38464 321.40555
40.3951 58.114758 321.42505
22.951561 59.051476 321.24918
23.355915 59.159821 321.53302
24.61186 59.492561 321.55286
25.424162 59.59967 321.45908
26.541086 59.697376 321.46652
27.512924 59.78241 321.50574
28.532707 59.871624 321.56656
29.564671 59.961914 321.5611
30.489382 59.957188 321.48953
31.414804 59.876221 321.72845
32.566696 59.775444 321.49643
33.573299 59.687378 321.4614
34.559464 59.601101 321.40207
35.60429 59.435646 321.46518
36.499668 59.198517 321.37387
37.136978 59.027752 321.43903
12.559773 54.272102 322.4025
13.377444 54.844635 322.51413
13.809484 55.147156 322.48224
14.447157 55.593662 322.39871
15.026893 55.993301 322.45627
44.99469 55.983238 322.01965
45.55497 55.592167 322.42929
46.291443 55.076481 322.87509
15.554955 56.23954 322.41577
16.538139 56.698009 322.48575
17.15884 56.987446 322.44916
42.972755 56.926079 322.68481
43.534599 56.664089 322.47852
44.27256 56.319969 322.35193
17.622938 57.203857 322.40161
18.302696 57.520832 322.54758
19.233871 57.955048 322.64664
40.890671 57.896973 322.44803
41.570724 57.579857 322.51044
42.509079 57.1423 322.49744
19.780577 58.193523 322.65176
20.4063 58.369473 322.56137
21.567976 58.680744 322.48788
22.586767 58.953728 322.54013
37.476543 58.936768 322.48788
38.484859 58.66658 322.48096
39.446545 58.408905 322.57141
40.436844 58.102993 322.56155
23.506723 59.20023 322.52551
24.612379 59.492496 322.62204
25.482334 59.604755 322.56638
26.765314 59.716999 322.30405
27.487728 59.780205 322.50647
28.543388 59.872559 322.53705
29.546535 59.960327 322.47314
30.469538 59.958923 322.47311
31.49061 59.869591 322.56879
