# .PCD v0.7 - Point Cloud Data file format
VERSION 0.7
FIELDS x y z
SIZE 4 4 4
TYPE F F F
COUNT 1 1 1
WIDTH 478
HEIGHT 1
VIEWPOINT 0 0 0 1 0 0 0
POINTS 478
DATA ascii
4.322681 14.566637 3.214745
49.658646 14.655149 9.7375488
36.123592 5.8573952 11.984497
7.1482091 49.41317 13.473837
57.194695 17.603283 19.968241
6.7219858 11.152246 30.316151
5.7075992 35.564545 31.082138
5.9446645 36.449287 31.097275
14.795698 49.757061 30.784782
5.734324 35.664284 31.614319
5.954988 36.487816 31.971527
40.522327 1.931265 34.392555
6.103303 37.041336 33.481384
3.0909979 16.990618 35.064655
45.394558 4.2955112 47.451698
45.877335 55.366447 47.7276
45.676327 55.507195 47.671139
45.701992 4.510777 48.116459
46.159008 55.169216 48.172939
24.006205 5.8226161 50.096756
52.770023 49.494934 52.347263
52.362293 49.902664 51.913364
52.639759 49.625198 51.807827
4.016943 15.004921 63.221321
1.496111 20.907938 63.073193
57.141823 17.48991 70.347755
45.110302 4.0964708 77.968292
57.007771 17.202425 81.12191
43.70956 3.4174969 85.063431
10.345787 14.648814 84.724144
9.8622904 15.339318 85.007919
24.062914 59.349262 90.043373
14.104095 55.353439 95.310829
2.9013231 42.602623 98.172104
4.4507971 45.616329 97.644958
4.8635669 46.205826 98.184631
16.651506 51.056511 100.65903
58.51437 39.05294 103.6339
37.030773 6.1004734 106.2222
53.878407 37.109581 105.66756
54.083897 36.34269 106.16937
9.9637175 7.7713218 107.86452
7.3002472 49.565208 107.91646
54.131927 23.836563 116.67433
14.726601 4.2106743 117.2824
52.420639 19.151276 122.95001
52.612869 19.56352 122.5735
14.524701 55.647953 122.8399
4.5864639 14.189917 124.58636
29.079243 59.919445 125.89928
8.1166353 17.99909 127.25256
8.0230265 18.199835 128.09241
49.797943 45.14592 138.44955
54.749855 32.859161 139.69775
10.41745 45.453533 141.95805
51.840416 17.906986 143.94086
57.522999 18.307341 144.4445
49.752045 14.788535 145.70255
1.4811521 20.963764 151.70903
12.007904 47.228703 151.71332
40.555374 52.557426 156.17316
13.784386 55.129581 159.46384
48.050968 47.16983 163.30612
45.349285 55.736191 169.11842
45.266136 55.794411 170.05814
52.516018 40.644176 195.00577
49.569855 45.471661 196.30283
4.4242272 14.421616 198.20978
58.427074 39.378735 198.67609
15.179256 3.9356494 200.58212
55.147911 46.189434 201.55571
49.116081 53.088867 203.3698
46.645672 48.575127 215.27826
55.604778 14.463039 218.65192
5.9034748 23.704432 230.22824
52.725155 49.539803 229.52177
53.98056 23.271654 240.89369
51.24868 8.9837217 249.59442
37.057957 53.892239 250.15353
36.862091 6.055274 253.32593
36.213947 5.8816051 253.91624
51.189301 8.9243412 253.76157
13.103703 11.675497 256.28781
48.264053 13.043256 255.96994
57.114929 17.432234 256.12546
6.4798112 21.55352 256.44009
57.005718 42.801971 256.60599
0.27474749 33.140381 260.83893
30.528862 5.0462685 268.01697
45.372952 49.638969 268.37848
5.4723248 47.075222 270.98953
6.1076484 22.942446 272.40341
7.4382229 40.546051 274.43979
39.164078 58.484589 273.2395
2.648629 17.93928 275.9502
59.968094 29.635315 275.84064
6.0448799 47.892914 284.35184
45.307266 55.76561 286.28302
45.016201 55.969418 286.64676
43.507851 50.944931 293.66696
1.490891 20.92742 294.97998
0.186985 32.137257 296.93631
27.668447 0.20398401 299.89618
53.920532 47.94231 301.53629
53.904007 37.014046 304.03702
47.971138 53.900345 303.2244
19.37398 52.524487 307.88602
3.064296 42.952122 309.55838
51.203445 8.9384861 316.09448
55.661102 45.456524 316.26392
50.505825 51.759132 318.28931
0.104136 31.190285 326.81128
0.1117175 31.276936 327.52487
14.832983 49.783169 329.13028
10.26178 45.231213 331.10388
58.766403 38.112331 334.26605
7.444046 40.558537 337.23517
14.769917 55.819656 338.5163
14.546734 55.663383 339.09088
49.09193 6.8844399 343.88437
2.9877131 17.212112 347.79706
49.278862 45.887238 359.97754
44.394604 3.7369373 360.38437
45.9478 10.771862 360.73422
43.724686 3.4245491 363.24634
45.291645 49.695904 363.09253
4.3059978 45.409534 367.71118
43.32679 3.239006 370.61261
47.025394 11.804594 370.79922
54.679443 13.141521 371.05945
35.703701 0.588202 374.9494
14.344707 4.4780788 384.17938
10.359766 45.371151 385.16949
36.451866 5.9453559 386.4649
56.939266 17.055519 388.16296
57.16983 17.549965 388.01666
56.833267 16.828203 388.53494
26.953745 54.733486 389.58875
40.646637 52.514874 390.72293
47.899788 53.950302 392.73538
4.6762962 14.061624 393.70081
5.833797 36.035526 393.41202
59.983162 30.192482 395.2323
10.479348 7.2556901 401.1445
11.570893 46.791695 406.18234
6.249959 37.588665 411.55115
42.536827 57.129356 418.21381
23.513653 5.9545951 425.85608
47.053627 11.832829 428.99237
18.481762 52.108437 430.14752
14.39618 10.522683 432.17273
50.037411 15.196081 433.63437
53.016102 10.777504 443.05746
5.8172178 35.973652 447.2605
2.6791041 17.873926 450.46887
14.976444 49.883621 450.72849
51.149452 8.8844938 452.57803
42.374161 57.205208 455.98251
52.503647 40.670708 458.93658
36.337597 5.9147377 468.99951
36.900677 6.0656142 469.34937
43.069283 3.118928 469.57571
36.674194 6.0049281 469.5947
4.4631147 45.633919 470.48169
4.829514 46.157192 470.63318
4.3928428 45.533562 471.06512
4.7036409 45.977428 471.00873
55.532799 45.639755 472.59808
39.318905 58.443108 473.97354
55.173935 13.84773 476.97336
53.927925 23.075226 483.50128
18.437002 57.583462 486.31232
59.250237 23.693348 489.14453
47.207619 11.986819 499.2923
2.674511 17.883774 501.26718
57.106312 17.41375 502.13434
56.833141 16.827934 502.52219
20.901445 1.4978499 508.2962
49.829235 14.898773 508.16098
7.4596968 19.407898 508.4509
1.832064 40.269829 508.39731
23.734806 5.8953371 510.11923
19.42053 1.9579099 512.80225
16.47909 9.0642128 512.9632
16.861839 8.7962084 513.6394
31.4473 54.873379 513.70166
1.482301 39.040524 515.41016
44.800488 50.039814 514.58643
46.281853 48.938946 526.54077
46.535461 48.685337 526.5166
14.077423 49.25412 531.16266
3.2724104 43.398422 538.64685
43.70718 3.4163849 541.35504
16.892889 3.136569 543.28735
51.121574 8.856617 545.78253
37.471733 6.2186279 547.11584
51.487862 9.2229023 546.37823
12.284637 12.494561 547.3327
12.450577 12.328622 547.72455
57.39613 18.035267 548.74097
47.741104 47.479691 548.25891
43.485775 50.960388 548.26196
53.825607 22.693371 563.90979
38.719467 6.586473 570.71118
5.9526043 23.52108 576.87183
55.601307 45.54192 577.2337
54.04406 36.491356 578.74438
36.464108 54.051361 577.9032
4.2429023 14.680573 579.81274
6.1004553 22.969294 580.01184
46.278282 11.05748 591.94476
5.0040712 29.953461 593.66931
51.952763 41.852085 594.14246
6.017715 36.721916 595.7854
52.190971 9.9260101 599.37317
10.604189 11.017206 600
1.258937 37.060097 600
3.0207729 42.121979 0
4.5168042 14.288239 2.8614759
36.160744 5.8673501 11.756609
46.689194 11.468395 15.634876
46.59914 11.37834 16.541542
23.495892 5.959353 23.864281
3.3009031 16.525225 27.664438
5.8973289 36.296139 31.296787
39.036556 58.524574 36.831341
39.234844 58.471577 37.684834
45.525471 4.3871779 48.369106
45.839645 55.392834 48.12981
45.359619 55.728954 48.220703
6.1379175 22.791374 50.73661
54.082546 36.347733 51.298824
46.546913 48.673882 53.676971
52.416985 49.847973 52.568222
54.061188 23.572565 56.724476
16.932335 3.1181746 57.838974
54.83884 28.157934 61.462158
3.9558461 15.121776 62.992538
1.388182 21.254131 62.955902
1.415175 21.153221 63.145
50.184742 15.406488 64.827591
57.084686 17.32818 70.208344
55.750072 45.343822 69.96756
45.252846 4.1962819 72.535507
47.826221 12.605423 85.279755
10.369573 14.586075 84.720695
10.024038 15.079408 85.136879
3.1409502 16.835209 87.610214
58.631218 38.696735 87.658043
43.575562 56.644989 91.784256
14.563791 55.675323 95.435066
4.7861547 46.135216 98.232033
47.168076 11.947277 101.4504
1.484019 20.857782 105.97328
54.099861 36.283112 106.17673
4.4647551 14.320378 106.6267
53.984982 12.14973 108.94437
45.385216 49.630383 109.40717
49.539371 14.484808 115.48588
54.044998 23.512136 116.44748
53.897762 22.962648 117.05559
7.149847 39.98204 118.19496
42.372997 2.794246 120.79041
4.4345231 14.356363 124.3134
4.297348 14.563454 125.26138
11.808306 12.970893 126.1758
8.2135925 17.760815 127.35321
7.9049911 18.39431 127.40799
8.3041973 17.614754 127.70415
5.2468672 26.881924 132.92183
42.14027 57.314278 136.03642
57.316265 42.212708 137.38257
49.791832 45.165001 138.41695
25.422153 0.400509 140.82132
49.50172 14.431038 145.48402
57.340992 17.836012 145.09209
52.071171 18.401846 144.10242
53.854481 37.198872 145.89311
54.049297 36.471813 146.27013
54.829655 31.947044 148.70558
54.87394 46.611301 149.04533
12.557946 47.778744 151.43747
23.65753 54.083954 150.13231
1.4092489 21.095501 151.94035
54.10154 36.276855 154.25687
55.904934 45.127556 154.18614
54.146027 23.889174 154.95023
40.94828 52.39323 156.07233
54.099731 23.716406 160.06442
13.880738 55.197044 159.53362
12.407929 12.37127 162.05002
5.1992617 32.639206 162.18982
48.005219 47.21558 163.17751
33.552803 5.3108292 164.45511
13.258963 11.520235 169.42395
44.971352 55.994122 169.37823
45.240616 55.812279 169.44832
32.277645 0.199268 175.62582
47.626297 47.594501 180.10773
39.43766 1.559682 183.93228
39.144833 58.519543 188.79295
58.59222 21.064068 190.46426
2.965992 17.152086 193.4301
45.932995 55.327469 192.94099
2.917331 17.254738 196.51424
58.631165 38.798485 199.13731
44.762131 3.9083166 206.74042
49.282841 7.018115 208.39627
5.215939 27.060581 211.34032
1.367565 38.805138 214.45137
22.005163 6.3587928 215.62836
25.236973 0.41670999 219.37943
39.035976 58.554417 224.92757
56.839302 16.714802 226.29388
52.579483 19.491922 228.8934
53.884216 37.20467 232.47049
53.875793 37.242897 232.60661
54.07341 36.39209 234.90663
10.538047 45.664593 242.51935
10.408287 45.495487 243.27943
13.38638 48.607178 248.53339
16.899487 8.7698488 249.0576
50.871258 8.6063004 249.73726
51.113449 8.8484898 250.27092
51.104233 8.8392744 250.54507
36.005867 5.825851 253.45621
36.727161 6.0191221 253.50684
57.260811 17.602379 255.58636
56.920677 43.127396 256.2211
16.650959 3.249383 257.259
22.175554 6.3131371 257.7453
13.035772 11.743426 256.88153
57.221436 42.482689 256.71658
13.697874 55.069004 260.79547
32.895916 54.746639 265.14209
45.428322 49.600201 268.37164
46.072186 49.148613 268.70398
23.678988 5.8847485 271.90509
6.244626 22.28381 272.56473
37.37183 6.1918602 275.9043
59.978092 30.501814 275.45691
45.440578 49.591618 275.03278
44.753376 56.095764 274.68381
45.091446 55.916733 286.21637
5.8054848 36.149471 292.37711
43.694084 50.814526 293.86044
14.076971 4.6655502 294.25253
0.97476298 37.41853 302.7074
19.35223 58.010242 302.72723
53.966698 36.96273 304.17288
0.347536 34.387352 310.16794
3.010932 43.008224 309.43521
53.944702 12.055544 313.50623
4.7119322 46.087311 314.85287
55.628067 45.568554 315.91541
42.413345 57.186935 315.85898
55.23484 46.130276 316.57642
3.0101399 16.988203 318.99915
12.474173 47.694973 318.02832
19.542728 52.603172 321.19202
9.717226 15.435463 326.96417
0.043565001 30.99782 326.75403
13.816349 4.8480392 327.51224
10.078588 14.934183 327.63104
14.910557 49.837486 328.9848
26.784447 59.718674 330.09625
14.966397 4.042767 336.02972
10.35969 52.624649 336.18713
54.313194 35.499516 343.12823
40.304466 7.2854624 343.84155
40.572632 7.4154091 344.41074
3.0240321 16.942945 347.06396
12.278435 5.9248981 358.02753
12.102858 6.0478392 358.18945
44.818554 3.934629 359.92752
44.353935 3.7179739 360.59454
45.180161 4.1453881 360.57361
45.325119 10.327533 361.11514
23.301859 54.023643 362.44012
55.284615 14.004603 372.13959
10.380104 7.3549342 374.15619
36.31683 0.73137701 375.49622
16.891405 3.1372609 378.05975
48.910759 46.31004 378.9444
13.899384 4.789897 383.68604
37.063225 6.109169 387.05569
56.909851 16.784763 388.14978
57.16523 17.323423 388.09015
57.045795 17.066929 388.73792
27.393402 54.771954 390.24539
4.9275851 13.574181 393.83478
5.8143349 36.258759 393.9122
22.97533 53.952251 393.2298
28.495514 5.1316252 394.91785
9.9800844 7.7549539 400.27393
45.475075 10.432533 399.34491
53.860996 37.381187 399.31494
7.3463039 49.611263 399.85547
10.481789 7.2532501 400.62201
6.1258287 37.339413 411.62885
5.9335909 36.707821 415.04822
10.915234 13.863965 419.80042
28.930529 54.906433 421.6394
16.581146 3.2819371 429.7326
49.809235 14.821319 433.30865
14.740664 55.799175 444.43967
5.737669 35.955418 447.26294
2.508539 18.05109 449.6398
52.666065 40.519432 459.13333
43.362118 3.2554801 468.86554
4.509326 45.769283 471.16931
37.229534 53.846268 471.18332
55.770737 45.353302 472.64679
51.446819 9.181859 475.67715
47.792683 12.571882 481.08655
4.7537513 13.847043 483.64536
59.273026 23.565094 488.98361
47.15691 11.827744 499.47324
2.7784648 17.452711 500.62476
56.990711 16.977072 502.25687
57.156891 17.368977 502.28607
57.172382 17.405504 502.66275
8.6030684 8.9948416 506.32806
31.437986 54.92556 512.73956
31.985996 54.865261 512.91699
6.0488458 37.159874 514.01965
31.693274 54.897469 513.67865
6.1365099 37.402561 514.95239
53.995594 12.020427 517.83209
4.5915928 14.123497 521.85217
23.640825 54.177021 520.76239
30.401428 0.036846999 525.19666
46.823463 48.471024 526.34839
37.404587 53.83548 536.146
3.1418669 43.305279 537.46173
57.289757 17.682304 544.27979
12.702567 11.997897 547.30115
11.803429 12.878565 547.35895
12.388104 12.30104 547.25812
12.622396 12.075838 548.06183
52.60313 40.589993 553.31964
55.0327 46.511913 552.77283
51.140518 51.235725 552.34741
54.025681 36.770962 558.67303
13.9553 4.7302971 560.81281
20.888336 1.480828 562.479
14.03043 4.6823359 561.74878
20.898979 1.477546 562.60663
12.471569 12.235698 565.0965
53.92099 22.892157 564.08777
4.2973938 45.459934 567.08295
35.801014 59.388805 569.20496
14.697965 49.709682 571.68237
16.908106 56.942059 572.43066
18.173475 57.528294 573.85651
58.51675 20.804234 574.66046
5.840416 36.216805 575.7536
47.138184 11.810963 579.36591
6.198966 22.400116 580.36383
6.1458998 22.545681 580.41016
49.738705 14.662132 581.05969
3.4115059 16.248037 581.51367
6.1818638 22.445578 580.79596
6.0048108 23.008562 580.83356
3.383635 16.30319 586.34192
40.859112 7.515841 587.98004
3.0396121 16.98399 586.85858
53.999897 47.918877 587.67493
40.326729 7.2901139 588.79315
40.678329 7.439394 588.57843
40.930202 7.5464911 588.67621
10.345828 14.649151 591.96027
8.8489037 51.246094 591.44873
51.989311 41.842377 594.16907
5.8992782 36.481045 596.02448
6.0864601 37.251236 596.32874
0.82472801 36.739929 599.77393
1.3605061 36.4757 600
