# .PCD v0.7 - Point Cloud Data file format
VERSION 0.7
FIELDS x y z
SIZE 4 4 4
TYPE F F F
COUNT 1 1 1
WIDTH 1612
HEIGHT 1
VIEWPOINT 0 0 0 1 0 0 0
POINTS 1612
DATA ascii
526.89771 122.86203 236.89081
512.87305 113.73551 239.93089
514.94073 113.59188 239.04666
516.98865 113.22369 238.81398
518.98511 113.02926 238.87178
521.04626 113.2262 239.30638
522.73828 113.51168 238.92044
524.33167 113.92838 238.62604
509.69263 115.96535 239.57349
510.99805 115.37379 239.17612
512.80963 114.52267 238.86807
514.40918 114.25788 238.18997
523.78186 114.35468 239.73398
525.26465 114.75195 238.98711
526.77985 115.46955 238.47377
509.29602 116.85616 239.49905
510.92691 117.06023 238.47072
525.91541 116.16235 239.60587
526.8736 117.09782 239.13542
528.13452 117.04047 238.14702
509.57416 118.93668 239.27243
510.57086 118.97261 238.71608
512.20587 119.97704 238.02753
525.79492 119.47206 239.86665
526.81152 119.06757 239.12495
528.20789 118.27084 238.18883
511.05301 121.10874 239.59918
512.87439 121.46685 238.82918
514.7674 121.94383 238.2583
525.28119 121.17049 239.0349
526.64417 120.3918 238.67603
513.06921 122.94853 238.98143
515.14008 122.81319 238.96718
517.26459 122.93342 239.10609
521.0506 122.92396 238.96654
522.8006 122.85368 239.01268
524.89844 122.88518 238.86803
511.14865 113.62304 241.25354
512.94434 113.32036 240.95782
515.13007 113.0918 240.81032
516.81128 113.0707 241.05141
519.13696 113.31715 240.8237
520.74188 113.65723 240.7533
522.33258 113.93236 240.20865
507.14746 115.37726 241.50281
509.043 114.28186 241.41138
510.60376 114.58064 240.12064
521.28003 114.33041 241.53743
522.87616 115.17936 241.27344
524.3042 115.6978 240.61998
505.41095 116.53098 241.82689
507.0856 116.95728 240.79361
508.4881 116.59351 240.04047
523.70959 116.67973 241.56969
524.95282 117.08848 240.68257
505.21335 118.76506 241.75415
506.63425 119.16718 241.09877
508.18149 119.33361 240.2121
523.59137 119.3537 241.62947
524.71582 118.84646 240.87936
505.68259 120.14825 241.9713
506.8735 120.25269 241.39673
508.7998 121.19707 241.01836
510.0712 121.63008 240.65848
521.27136 121.48336 241.76628
523.04999 120.92886 241.00186
524.40662 120.71227 240.2036
511.1488 122.81709 240.9706
513.06366 122.91905 240.78554
514.77112 122.9509 240.99936
516.96716 122.9741 240.95801
518.75537 122.91646 241.15178
520.90851 122.85045 241.05934
522.69672 122.84597 240.68274
506.90097 113.90914 243.19054
508.97888 113.42644 243.11345
511.21552 113.14197 242.78531
512.97205 113.06451 243.18855
514.71185 113.10794 242.8439
517.15936 113.57548 242.98561
519.922 113.99443 242.03651
501.75684 115.76019 243.93515
503.05722 115.31612 243.5842
504.77664 114.61279 243.38982
506.7973 114.4752 242.54338
517.14667 114.0664 243.98758
519.21796 114.67578 243.34114
520.49554 115.11137 242.90813
501.65259 116.90482 243.60547
502.6767 117.01324 243.05937
505.02118 116.33253 242.08791
521.27368 116.88069 243.33484
522.62994 117.19149 242.47183
501.42932 118.86151 243.61702
502.90979 119.17702 242.96211
504.27356 119.40839 242.35298
521.27356 118.62054 243.46115
522.29846 118.82849 242.69307
503.29382 120.90298 243.66029
504.55594 121.04118 243.20035
506.7135 121.42348 242.42755
519.23615 121.33141 243.3549
521.06366 120.82865 242.58116
522.34369 120.16524 242.17157
507.08795 122.94942 242.85153
508.95566 122.81422 243.05087
511.15619 122.96182 243.08122
515.10767 122.92539 242.99748
517.02551 122.87332 242.95682
518.77698 122.86493 242.89748
501.5451 113.82993 245.94955
503.1283 113.68641 245.46576
505.10403 113.50515 244.9344
506.66907 113.29602 244.77271
509.06616 113.06609 244.65807
511.20013 113.13486 244.99789
513.00665 113.44764 245.21266
514.9834 113.81236 244.85655
516.27338 113.89885 244.23607
186.75352 115.80368 245.83633
189.94073 115.20332 245.97188
191.06714 115.30246 245.82669
193.16586 115.43009 245.62567
195.3528 115.39381 245.51997
196.95605 115.46859 245.3466
198.92087 115.2009 245.45518
201.18326 115.0424 245.55229
203.11047 115.11692 245.47708
205.28331 115.37383 245.3009
207.06192 115.33025 245.31152
209.02808 115.27879 245.29478
211.06311 115.22153 245.30122
212.85957 114.97147 245.44824
215.31667 115.37259 245.19586
217.12041 115.00777 245.51489
218.89885 115.15881 245.46439
221.14738 115.25522 245.49332
223.17976 115.14772 245.63704
225.12245 115.55292 245.46649
227.002 115.27138 245.69601
228.67554 115.50996 245.60838
231.06183 115.73489 245.5712
232.67679 115.56535 245.75452
235.83469 115.5004 245.99002
237.20139 115.83814 245.9216
497.66391 115.94274 245.83168
499.38199 115.286 245.43599
501.18121 114.82154 244.95061
502.37384 114.73448 244.43396
504.11066 114.10344 244.2812
515.1004 114.27428 245.5011
517.62048 114.78108 244.50655
518.81146 115.3502 244.29578
179.20667 117.67583 245.97141
180.89174 117.02676 245.89107
183.05515 117.04858 245.73033
184.71533 116.64851 245.67688
186.93164 116.79492 245.50706
188.79028 117.3204 245.2699
191.09952 116.93301 245.17912
193.17973 116.82078 245.06674
194.92638 116.91891 244.91133
197.20392 117.01028 244.7523
198.92749 117.01774 244.71413
201.27429 117.22549 244.61076
202.72762 117.1154 244.65596
204.97353 116.6091 244.72368
207.02957 117.064 244.61595
208.88631 117.17052 244.56938
210.84364 117.204 244.54135
212.85875 116.85886 244.56166
214.89459 116.928 244.55605
216.95206 116.86236 244.6497
218.97009 117.14854 244.66342
221.22464 117.27978 244.74149
222.76868 117.12909 244.80798
224.75992 117.22237 244.87373
226.72496 116.4343 245.12299
228.94588 117.05794 245.07166
230.82571 117.0445 245.14566
233.30205 116.91686 245.27586
234.91435 117.06465 245.35864
237.1013 116.8866 245.59286
239.08247 116.90146 245.72952
240.79259 116.89487 245.85275
242.68706 117.21728 245.94746
497.11368 117.31144 245.65331
498.8956 117.33085 244.81508
500.54239 116.36626 244.2511
517.6698 116.97901 245.77577
518.96399 117.06051 244.97141
179.75591 118.29115 245.90855
181.11421 118.67473 245.81238
182.91614 118.89366 245.71014
185.08836 119.18822 245.63365
186.88612 119.09835 245.47083
188.86185 119.04288 245.3441
191.16907 119.24571 245.22363
193.47842 118.47329 244.90244
194.82741 119.02859 244.91974
196.84294 119.13443 244.8287
198.95953 119.02799 244.72142
201.19624 119.1025 244.71851
203.23282 118.85162 244.62738
205.10033 118.875 244.60835
206.9265 119.30245 244.71204
209.07475 119.00587 244.5878
211.12605 119.32944 244.65811
213.21301 118.9398 244.55273
214.76817 119.25134 244.58842
217.00673 118.83509 244.59148
218.95044 118.99042 244.69521
220.59253 118.89634 244.74826
222.99913 119.12642 244.88512
224.85597 119.0653 244.93144
227.23259 118.7987 244.97424
228.86461 119.04568 245.07576
231.12157 119.10276 245.17935
233.45476 119.00327 245.29456
235.19763 118.54488 245.30357
237.01768 118.58315 245.45189
239.08928 119.08172 245.71638
241.20145 119.18899 245.90146
243.50386 118.32687 245.94475
244.13148 118.28326 245.99263
497.14319 118.91502 245.67603
499.21619 118.69379 244.65967
500.43338 119.68201 244.30954
517.79871 119.77341 245.44101
519.01111 119.00963 244.92369
520.00531 119.40253 244.18082
185.41742 120.15285 245.90979
187.40349 120.36423 245.88283
189.01024 120.52241 245.86559
191.35492 120.5159 245.70857
193.0004 120.62596 245.67287
194.94556 120.47516 245.44102
197.01863 120.81297 245.53294
198.77162 120.74343 245.41856
201.15279 120.71868 245.38844
203.34526 120.68612 245.33643
205.2173 120.96035 245.50201
207.23955 121.02168 245.52953
208.72482 121.11949 245.5909
211.101 120.90572 245.4113
213.03194 120.78336 245.29514
214.8685 120.80815 245.32243
216.94917 120.87666 245.43506
218.76781 120.88528 245.47348
221.18356 120.80964 245.53336
223.14014 120.57846 245.46315
225.08446 120.4579 245.45398
227.14793 120.56627 245.60132
228.47635 120.5348 245.62268
231.11316 120.38145 245.65019
233.33882 120.50755 245.80107
234.58453 120.10259 245.68149
237.71713 120.18248 245.96803
497.57394 120.23718 245.96539
499.42361 120.62306 245.35774
501.34558 121.07144 244.78793
502.74973 121.46198 244.4505
515.448 121.44012 245.61047
516.85614 120.92313 245.25945
518.91528 120.51047 244.3454
501.0842 122.96265 244.97974
503.14923 122.79481 244.97311
505.07816 122.88908 244.99548
507.07739 122.92043 244.80968
513.09674 122.85366 244.94418
514.78247 122.83463 245.04579
180.49644 113.98518 247.87199
184.214 113.8131 247.78152
187.22614 113.77153 247.64459
189.00481 113.76623 247.56013
190.32526 113.65292 247.62918
193.08052 113.68757 247.40158
194.6467 113.58893 247.46077
196.78531 113.66266 247.23352
198.41837 113.76447 246.96553
200.60075 113.57681 247.27852
203.18703 113.69844 247.03784
204.80215 113.63786 247.08064
207.07162 113.51233 247.34265
208.74593 113.59489 247.18065
211.41283 113.57997 247.17638
213.03116 113.45259 247.39807
214.82034 113.46521 247.36017
216.99168 113.49693 247.37294
218.77191 113.55953 247.32283
221.62862 113.48449 247.57994
223.10249 113.74242 247.12199
224.8687 113.60573 247.44162
227.0876 113.55625 247.61475
229.47873 113.82453 247.22861
230.5737 113.72208 247.44173
232.47603 113.69257 247.56268
235.80382 113.58012 247.99782
237.26941 113.87906 247.61911
239.02495 113.89497 247.73422
497.02322 113.91161 247.91159
499.17673 113.74297 247.28572
500.91162 113.56205 246.86028
503.09348 113.17392 246.98096
504.97311 113.05525 246.9413
507.27301 113.07521 247.08943
509.00284 113.31506 247.19698
511.03311 113.50987 246.53362
512.67084 113.86288 246.35236
168.42081 115.91475 247.87102
171.03409 115.42179 247.80203
173.05759 115.22915 247.6703
174.6888 115.1381 247.52856
177.26106 115.07912 247.26985
178.99548 115.04838 247.06047
180.95439 114.99522 246.85735
182.95337 115.17812 246.50941
184.81303 114.88186 246.61572
186.98012 114.74417 246.57036
188.94698 114.39983 246.73831
190.91496 114.49312 246.50818
192.58089 114.4696 246.42003
195.11884 114.33688 246.37706
196.29828 114.32137 246.31401
199.13867 114.3695 246.1357
202.65277 114.32322 246.14908
204.75223 114.16675 246.30673
206.38771 114.16617 246.28568
209.59604 114.25269 246.15181
211.11111 114.12202 246.2832
212.75647 114.26192 246.10616
215.40929 114.28436 246.08443
216.73596 114.29803 246.1203
219.26115 114.4329 246.06499
220.63251 114.44622 246.10345
222.6506 114.28561 246.37053
224.97139 114.3822 246.36375
226.90585 114.48177 246.33386
229.1022 114.37651 246.52702
231.33167 114.47394 246.53433
233.11609 114.66423 246.42386
234.68031 114.91886 246.30449
237.07239 114.66702 246.73254
239.06969 114.70588 246.91144
240.76942 115.08206 246.70859
243.11636 114.86632 247.10095
245.14297 115.13502 247.02852
246.99338 114.9782 247.29605
249.13217 115.01888 247.41478
250.62506 115.27988 247.32997
253.13979 115.07955 247.67067
255.15591 115.50812 247.57916
256.92584 115.53299 247.77029
259.00201 115.81718 247.8414
493.41553 115.65971 247.65286
494.86877 115.22562 247.38264
496.77441 114.76118 247.0526
498.45248 114.54791 246.55907
511.36578 114.09076 247.51624
513.40332 114.91663 247.17868
514.92987 115.59154 246.83186
165.82475 117.63486 247.80299
166.79689 117.25144 247.70207
168.75441 116.5669 247.60762
170.93895 116.94878 247.19164
172.84492 117.49609 246.79491
174.69357 117.15743 246.62773
177.1105 116.83833 246.43304
178.71632 116.75557 246.23204
180.44997 116.48142 246.09175
239.88945 116.08938 246.02487
241.35843 116.22632 246.08644
242.68083 116.38668 246.13826
244.98521 116.89664 246.17957
247.49982 117.47181 246.28273
248.70476 116.92915 246.50175
250.70558 117.0337 246.65334
253.02211 116.80893 246.86566
255.34329 116.9929 247.04053
256.97195 116.67477 247.30916
258.6272 117.06904 247.38455
260.88229 117.09092 247.65657
262.96338 117.25323 247.81523
264.13882 117.66611 247.87041
491.439 117.02173 247.8949
493.20941 116.84211 247.30173
494.96957 116.78219 246.60417
496.53287 116.27938 246.15974
513.66315 116.13834 247.90367
515.13812 116.53654 247.14868
516.6593 117.18341 246.37962
164.87292 118.12027 247.96362
166.91743 118.7436 247.71259
168.9263 118.49934 247.36685
170.94923 119.3237 247.2791
173.10597 119.03262 246.92343
175.01924 119.0228 246.68439
177.06956 118.92854 246.37442
179.20641 119.20968 246.16801
241.4805 119.89692 246.14635
243.07217 119.58705 246.16875
245.03157 119.06827 246.19095
247.06128 118.82764 246.30621
249.127 119.16542 246.56152
251.45094 119.15588 246.74959
253.05145 119.16427 246.86835
255.23367 118.94432 247.03433
256.95926 119.15639 247.27231
259.26389 118.74731 247.44591
261.05374 118.92325 247.67937
262.88467 118.73442 247.84077
264.11182 118.06177 247.85237
491.95108 118.68851 247.64401
492.93771 119.11028 247.38957
495.03754 118.83492 246.51355
496.09872 119.27316 246.16138
513.8316 119.4985 247.95306
515.31238 119.0407 247.15576
516.42407 119.18972 246.46559
169.29616 120.26169 247.83815
171.09436 120.45235 247.72432
172.64804 120.50153 247.55084
175.21574 120.90885 247.5282
177.05103 120.66159 247.07829
179.1869 120.99345 247.1097
180.87111 120.94405 246.80168
183.31618 121.27344 246.87651
185.05347 121.17921 246.62193
186.84909 121.50941 246.81429
189.31146 121.52567 246.64746
191.36729 121.61193 246.59225
192.64844 121.45259 246.33969
195.02495 121.59398 246.31044
196.90369 121.44353 246.02391
198.68434 121.7181 246.2563
200.92569 121.76902 246.27719
203.28036 121.783 246.26907
204.08401 121.70934 246.17097
207.70616 121.81193 246.24927
208.68419 121.71909 246.1288
210.87335 121.84277 246.25183
212.97202 121.80534 246.18259
216.86613 121.7054 246.12692
219.60309 121.8675 246.42754
220.88052 121.72784 246.31805
222.43361 121.81381 246.47131
225.68091 121.39343 246.15479
226.87991 121.65739 246.47432
228.75325 121.58533 246.47198
231.05205 121.40437 246.39648
233.13582 121.5312 246.59663
235.46046 121.16669 246.46503
236.68066 121.27375 246.65137
238.93819 120.88074 246.52754
240.9827 121.17542 246.94038
243.27115 121.05414 247.02921
245.15823 120.9803 247.14255
246.70743 121.01046 247.23877
248.55957 120.73106 247.24275
250.86223 120.94437 247.51338
253.42874 120.75898 247.59242
255.0643 120.92396 247.84564
256.38986 120.32166 247.61676
258.56586 120.11162 247.76364
493.30264 120.14648 247.58968
495.5835 120.78694 247.13652
496.86774 121.2207 246.9991
498.96411 121.4789 246.31514
500.42523 121.92989 246.127
511.14966 121.86906 247.69778
513.3078 121.3998 246.93889
514.4646 120.77019 246.79492
516.24347 120.22401 246.14642
181.21475 122.90089 247.1889
183.09973 122.95983 247.01103
184.91348 122.92345 247.24301
187.1346 122.91841 246.82031
189.03914 122.90909 247.23918
191.00595 122.79557 247.02122
193.34897 122.77316 247.0208
194.86076 122.7907 247.20364
197.12807 122.90943 247.15479
199.18529 122.79295 246.96526
200.99158 122.88692 247.20338
203.09038 122.89898 247.08832
204.94934 122.83078 246.93004
206.86765 122.83291 246.95946
208.8047 122.78983 246.90401
211.01303 122.8475 247.14989
213.04465 122.6536 247.00285
214.92407 122.91994 247.03214
217.01419 122.78673 247.12357
218.97304 122.76034 247.03505
221.11362 122.86765 246.93178
222.95032 122.81995 246.9785
224.92101 122.77052 247.13892
226.8168 122.83317 247.1707
229.06181 122.90086 247.03616
230.8139 122.84482 246.95674
232.80299 122.9493 247.25327
234.98114 122.92038 247.21141
236.97243 122.95657 247.131
497.15848 122.80025 247.12009
498.83911 122.76926 247.13123
501.04184 122.81152 246.83539
502.77902 122.94067 246.99391
507.01627 122.97625 247.17104
508.81818 122.86121 246.9348
511.01086 122.67188 246.79317
512.78485 122.9185 246.99483
167.60178 113.94707 249.6156
169.17896 113.87642 249.51263
170.86137 113.71317 249.57338
173.46326 113.65923 249.34879
174.90063 113.64077 249.14851
177.17136 113.47485 249.24551
179.26294 113.4376 249.06375
181.01682 113.38668 248.98337
183.00694 113.31589 248.95204
185.09975 113.34629 248.67998
187.14656 113.18009 249.12277
188.75507 113.14681 249.18771
191.12743 113.19058 248.75378
192.77518 113.12627 249.09424
194.92696 113.08963 249.08051
197.08995 113.08704 248.82967
198.80157 113.07888 248.94862
201.14168 113.12666 248.57631
202.88155 113.0779 248.90224
205.17848 113.02937 249.3217
207.11345 113.04953 249.13048
208.94444 113.10364 248.52263
211.0092 113.05746 248.78038
212.76465 113.04336 249.10782
214.79831 113.0405 249.06372
216.7272 113.0424 249.01862
219.45273 113.10631 248.62399
221.12596 113.06583 249.07227
222.99945 113.08502 249.11057
224.87302 113.10905 248.96106
226.84364 113.08183 249.1254
228.65979 113.17039 248.85532
230.94765 113.22921 248.67361
233.22427 113.23199 248.77518
234.80855 113.20456 248.94179
237.11244 113.19401 249.24599
239.23976 113.45901 248.54857
240.91476 113.29784 249.16719
243.16745 113.44466 248.98271
245.24927 113.46758 249.08838
247.27072 113.52032 249.1268
248.49945 113.47739 249.27824
250.90364 113.5205 249.37061
253.06577 113.80188 249.0134
254.83569 113.83074 249.14328
256.7757 113.612 249.73108
258.93079 113.81231 249.63956
260.18607 113.84043 249.72618
493.31174 113.96996 249.26093
494.55853 113.60406 249.43143
496.81467 113.55748 248.65753
498.6076 113.08308 249.46773
501.16605 113.05273 248.67625
503.01187 113.18712 249.4874
504.65863 113.21224 248.88985
507.08163 113.51424 248.70618
508.39423 113.79865 248.64252
159.19435 115.59351 249.76147
161.0495 115.41038 249.51852
163.06924 115.03518 249.37585
165.02579 115.03632 249.03935
166.92191 114.59087 249.05768
168.81114 114.70507 248.6705
171.30298 114.17325 248.83682
172.64214 114.26119 248.56619
174.77551 114.2491 248.29556
176.38376 114.18925 248.1535
246.51309 114.05949 248.09668
248.66382 114.15614 248.16203
250.66837 114.28168 248.1777
253.83485 114.37759 248.32303
254.90068 114.48966 248.34586
257.57272 114.69228 248.44246
259.24368 114.74593 248.6409
260.76538 114.58152 248.96481
263.0976 114.96344 248.92676
265.26749 114.94169 249.20041
267.03036 115.34398 249.08069
269.27335 114.87481 249.63106
270.41312 115.25307 249.49976
272.50256 115.26669 249.70435
487.6521 115.84755 249.78795
489.60849 115.37327 249.33727
490.89713 114.69492 249.34766
492.82709 114.66263 248.68544
494.15094 114.22859 248.59018
507.61215 114.26086 249.71484
508.87515 114.66111 249.50667
510.86304 114.95906 248.75842
512.16931 115.45531 248.38817
155.89661 117.26683 249.81058
156.94191 117.22579 249.61107
159.08914 116.87013 249.27742
161.09943 117.06509 248.8177
163.12872 117.19653 248.40527
165.44783 116.42753 248.13762
263.17795 116.21516 248.15494
265.34418 117.27911 248.07898
266.77783 117.17499 248.28894
269.2117 116.95473 248.61523
270.75119 116.87681 248.81209
272.94797 117.24204 248.9688
275.07761 116.76851 249.34204
276.91153 116.84121 249.55042
278.98792 117.47585 249.63
280.12057 117.33464 249.76717
282.07712 117.38972 249.9921
485.89328 117.83095 249.83359
486.64682 116.98895 249.7289
488.60132 117.19396 249.0013
490.70584 116.93165 248.24231
511.54208 117.27406 249.52747
512.3761 116.71025 248.88977
155.19975 118.47772 249.92302
157.33464 118.78353 249.55656
159.25746 118.96681 249.23013
161.29712 119.08943 248.85274
162.80519 119.02686 248.53574
165.24222 119.66409 248.21089
261.76288 119.91487 248.04312
263.44522 119.83685 248.20131
265.28226 119.14631 248.20369
266.87 118.77141 248.30411
269.05176 119.09933 248.64151
271.30142 119.45836 248.99844
273.39789 119.35667 249.20416
275.09634 119.10516 249.32977
277.27164 119.02422 249.55246
278.91446 118.51698 249.63655
281.04865 118.47677 249.88039
486.97406 118.74181 249.61111
488.78235 119.08947 248.98999
490.289 119.91858 248.65211
511.2186 119.22002 249.57826
512.96436 118.70227 248.66016
159.15283 120.31277 249.71828
160.98579 120.80164 249.64474
162.58672 120.47643 249.1292
164.95799 121.24691 249.2518
166.78401 120.90665 248.65598
168.93768 121.2216 248.59131
170.54919 121.63684 248.74472
173.13338 121.52728 248.29462
174.99814 121.73158 248.24005
177.25076 121.87991 248.12849
246.92131 121.91238 248.10982
248.83318 121.8457 248.18146
251.04218 121.81862 248.32574
253.18997 121.73124 248.41586
255.06679 121.61649 248.4635
256.99484 121.54974 248.63985
259.16373 121.29041 248.66956
260.89166 120.95084 248.60814
263.13593 121.13725 249.00467
265.08521 121.33473 249.36681
267.0257 121.04317 249.35251
268.65891 120.75038 249.32761
271.01791 120.56705 249.43329
273.28076 120.54083 249.67505
274.60367 120.21198 249.64641
276.63806 120.22625 249.88448
487.52567 120.20857 249.86374
489.12839 120.64508 249.52144
491.32831 120.93312 248.92314
492.89542 121.36543 248.66167
495.23233 121.96302 248.42209
507.93872 121.72134 249.59534
508.95901 121.20996 249.61862
510.80978 121.2338 248.60591
512.81067 120.22155 248.22607
167.25429 122.81136 249.05644
168.83098 122.85064 248.98447
170.95531 122.90257 249.00281
173.05618 122.83856 249.14087
175.12088 122.76957 249.37671
177.04167 122.6785 248.92319
179.19987 122.92188 249.07314
181.21028 122.89805 248.82643
183.10417 122.91025 248.7373
184.9407 122.93083 249.18929
187.08374 122.91877 249.13722
188.9772 122.93343 248.97234
191.14012 122.95947 249.14073
192.877 122.96992 249.20039
194.83411 122.93901 248.90456
197.04581 122.96291 249.01527
198.86185 122.96515 249.08098
204.95509 122.97356 249.0844
207.01704 122.96958 248.99474
208.74501 122.97504 248.94733
217.09555 122.95798 248.81947
219.06004 122.97781 248.95781
222.94092 122.95422 248.96091
224.96637 122.97429 249.05722
229.1514 122.9358 248.95119
231.15553 122.93659 248.76363
232.99847 122.94933 249.12027
235.10677 122.91829 248.83968
236.74019 122.93198 248.9651
238.9222 122.87507 248.99342
241.02452 122.89002 249.11249
242.78697 122.85913 248.7149
244.84312 122.82675 248.9108
247.05402 122.79295 248.91228
249.03482 122.74529 249.07915
251.03888 122.89745 249.0966
252.8847 122.68212 249.11476
254.81755 122.96539 249.01019
257.06082 122.81212 249.19377
258.79059 122.86105 248.87149
261.07574 122.76581 249.05183
262.80423 122.81595 249.18407
493.15448 122.91045 248.99556
494.77551 122.86538 248.85324
496.72137 122.84428 249.03346
498.91064 122.91436 248.84196
501.07928 122.9792 248.90771
502.98608 122.97549 248.83618
504.82376 122.83627 249.18549
506.87296 122.76672 249.01624
508.95367 122.84138 248.66284
155.61192 113.9268 251.98752
159.09108 113.71948 251.6351
161.19107 113.57723 251.48093
163.10217 113.46881 251.38503
164.36948 113.41193 251.24066
166.9903 113.30063 251.0271
169.48592 113.15067 251.23015
170.95218 113.18309 250.89038
173.17955 113.09422 250.97713
174.82198 113.08907 250.93721
177.09019 113.02158 251.39949
178.49539 113.03896 250.86446
181.13745 113.04391 250.83772
183.39212 113.06284 251.0979
184.99902 113.09003 251.21437
186.88335 113.05318 250.88681
188.60965 113.13347 251.18324
191.0692 113.14506 251.06036
193.26964 113.15479 250.86444
194.83096 113.21758 251.10994
197.07581 113.2067 250.90076
198.64868 113.25538 251.00452
201.28659 113.21177 250.82016
203.10309 113.30183 251.06023
205.35068 113.24419 250.89005
207.18947 113.34246 251.13745
209.0592 113.38839 251.27727
211.11728 113.27242 250.96896
213.04648 113.26249 250.89958
215.40686 113.31361 251.03761
216.80963 113.32327 251.16208
219.07922 113.23863 250.92326
221.0641 113.20963 251.00519
222.47649 113.15591 250.73676
225.16875 113.17988 250.95978
227.22105 113.27475 251.40096
228.9911 113.13111 250.87901
230.509 113.08775 250.8013
233.10825 113.10541 250.96902
235.1131 113.09412 250.97437
236.74184 113.06277 250.90941
238.64493 113.02101 250.64157
240.62207 113.00775 250.88622
242.73114 113.04906 251.05679
245.00665 113.05591 250.80293
247.27116 113.03318 251.01462
248.85197 113.06555 250.7507
250.90779 113.03337 251.3166
252.98271 113.10386 250.81659
255.06937 113.0778 251.2318
257.05368 113.23671 250.92754
259.09952 113.15462 251.28064
261.16129 113.29758 251.03062
263.06122 113.39956 250.97343
264.57291 113.52477 250.86618
267.2019 113.50706 251.20532
268.80411 113.51145 251.36855
271.12048 113.58609 251.43327
272.85818 113.66404 251.46198
274.6741 113.61078 251.76689
276.99664 113.90578 251.55118
279.27325 113.85362 251.88762
486.73267 113.97438 251.73315
489.38721 113.76212 251.12514
491.17386 113.52698 251.01106
493.11923 113.19402 251.18381
494.93335 113.08423 251.10179
497.21982 113.05803 250.94464
499.41177 113.09831 250.95308
501.06821 113.38663 251.28191
502.83301 113.63469 251.03215
505.00156 113.89087 250.46323
149.35713 115.54401 251.9539
151.06424 115.24699 251.6749
153.50711 115.13767 251.24471
155.03026 114.82487 251.19429
156.40361 114.61792 251.07532
158.91405 114.70704 250.49139
161.00977 114.28904 250.46263
163.65643 114.08577 250.15671
164.06949 114.13114 250.02187
265.52759 114.04729 250.03708
268.79639 114.01108 250.46019
270.97198 114.17056 250.51318
273.24249 114.50269 250.4384
274.70032 114.6125 250.50562
277.52924 114.66311 250.80058
279.15439 115.06186 250.67009
281.21365 114.89227 251.03725
282.96826 114.70511 251.37927
284.73993 115.29808 251.13176
286.78867 115.09904 251.51006
288.72452 115.41652 251.52493
291.10913 115.34071 251.86337
292.75119 115.65683 251.89128
294.40033 115.87939 251.97708
481.7684 115.42004 251.82503
482.97705 115.2505 251.59219
485.08664 114.88168 251.30096
486.88559 115.00014 250.64412
488.93625 114.36616 250.47673
503.51328 114.35119 251.82263
505.15469 114.70686 251.35867
506.83603 115.04893 250.83359
508.42352 115.52153 250.45276
147.18011 117.51715 251.83734
149.11241 117.23724 251.39822
150.84317 116.79082 251.06284
152.69736 117.41291 250.45644
155.14078 116.61395 250.13599
279.87277 116.10986 250.10265
281.6467 116.55216 250.15926
282.79001 116.96874 250.18237
285.34515 117.27524 250.44458
286.82983 116.84778 250.7043
289.04956 116.84087 250.9957
291.01279 116.95681 251.22127
292.73361 116.83515 251.45702
294.77716 117.19525 251.63791
297.28415 117.15798 251.96399
479.42294 117.40519 251.85582
481.1243 116.85503 251.40927
482.85071 116.88478 250.92274
484.95935 116.97098 250.25307
507.28772 116.55482 251.48924
508.93936 116.9205 250.78714
510.22726 117.72166 250.31233
147.16527 118.5649 251.88884
148.9258 119.13205 251.5564
151.07867 119.08224 250.97667
153.00832 118.95798 250.47295
154.72876 119.48002 250.26781
280.61996 119.54106 250.07016
282.95728 119.04347 250.22279
284.73169 119.39053 250.51057
286.72592 118.74354 250.59889
289.29373 118.88357 250.95544
291.4838 119.03705 251.29784
293.19012 118.66835 251.41287
294.89139 119.14308 251.71931
296.85944 118.41474 251.84819
479.37784 118.85695 251.87932
480.95801 119.24445 251.50439
482.84842 119.25756 250.92041
485.22885 119.17157 250.22801
507.60464 118.94745 251.47688
509.07791 119.28028 250.64825
510.88159 118.09872 250.00334
149.79124 120.14198 251.66325
151.22256 120.3604 251.39484
153.17337 120.77373 251.21745
154.88121 120.98253 251.05013
156.8042 121.19538 250.86963
158.69807 121.26141 250.50598
160.89262 121.56554 250.31747
163.59868 121.86456 250.11891
267.84015 121.85719 250.19266
269.02185 121.79163 250.24672
270.75577 121.65572 250.30701
273.35944 121.22801 250.18472
275.04605 121.46973 250.63123
277.04922 121.10833 250.53586
279.34802 121.44441 251.09933
280.90332 120.91813 250.88077
282.91019 120.81889 250.98901
284.70447 120.89577 251.24837
286.87735 120.91594 251.50542
288.91302 120.85435 251.7281
291.27176 120.49146 251.78481
293.43024 120.30238 251.9447
294.11493 120.18784 251.97443
481.79767 120.42201 251.72153
483.43463 120.99461 251.62764
484.88162 120.96988 251.22672
486.82101 121.18375 250.83235
488.34311 121.4789 250.5323
503.65854 121.68755 251.715
504.90152 121.2989 251.45554
507.03012 120.75924 250.91878
508.82056 120.48126 250.26549
156.95148 122.88654 251.16692
158.88063 122.78728 251.08154
161.03671 122.7875 251.24715
162.95853 122.93497 251.21368
164.85539 122.83435 250.99171
166.90877 122.92066 251.02788
168.87894 122.96851 251.15919
170.86348 122.96108 251.11113
172.99103 122.94048 250.82022
175.05411 122.95592 250.96268
185.03244 122.97978 250.77612
187.07426 122.97124 251.01607
188.877 122.96653 251.00011
190.99031 122.94191 250.99234
192.90672 122.93993 251.12172
194.94846 122.93049 250.95752
197.01851 122.91502 251.07346
198.89949 122.84368 251.07454
200.94826 122.91772 250.94325
202.99998 122.92721 250.99045
204.99986 122.91842 250.99944
206.89795 122.88541 251.14081
208.85619 122.90719 250.97285
211.03098 122.96753 250.9711
213.18932 122.87135 250.99565
215.1454 122.83526 251.06674
217.13461 122.87206 251.44571
219.03537 122.88373 251.20096
220.91632 122.94651 250.6192
222.96681 122.93382 250.94775
225.15402 122.9276 250.98482
227.0959 122.94862 250.95174
228.89316 122.97958 250.94208
231.03421 122.95026 251.10172
233.13756 122.95637 250.93121
235.10962 122.97007 251.20531
243.05742 122.97913 250.90533
246.72913 122.97765 251.09135
248.79753 122.97347 250.98032
251.06744 122.96302 250.90132
254.97981 122.97681 251.08624
257.01608 122.92049 250.9758
258.96042 122.92194 251.05618
260.72952 122.87038 251.25929
262.76324 122.89111 250.9894
265.08212 122.80311 250.88988
266.84229 122.80439 251.00462
268.92184 122.8896 251.00069
270.94272 122.85858 251.01442
272.94888 122.82994 251.12964
275.07739 122.93421 251.00661
277.00507 122.88574 250.9893
279.01425 122.93457 251.10654
281.03598 122.93497 251.2589
487.17108 122.84728 251.14867
488.97308 122.794 251.12402
491.02283 122.84708 250.99973
493.418 122.91239 251.00504
494.85468 122.94888 250.88237
498.84393 122.92658 251.19878
501.02072 122.95647 250.89513
503.06143 122.84054 250.99384
505.16614 122.94881 250.84071
149.53879 113.75607 253.70013
151.2654 113.82861 253.11336
152.95135 113.50493 253.30084
154.94125 113.54305 252.84369
156.94957 113.30457 252.98296
159.209 113.15743 253.13982
160.71132 113.06305 253.2599
163.00089 113.10429 252.91191
165.2688 113.04617 253.06549
167.05226 113.03738 253.02525
169.22377 113.10654 253.04622
171.21382 113.17066 253.22209
172.77852 113.09193 252.61328
175.00301 113.25874 252.99831
176.93546 113.3302 252.98796
178.81013 113.50827 253.18954
181.10181 113.47865 252.82793
182.53966 113.3881 252.51514
184.8455 113.4793 252.5421
186.95715 113.73616 252.90768
189.06613 113.72092 252.72366
191.44647 113.6681 252.46762
192.9543 113.68353 252.42416
194.68669 113.68109 252.28757
197.22997 113.72007 252.18959
198.64522 113.87177 252.36598
200.72301 113.82446 252.27663
203.33965 113.85027 252.28618
205.26306 113.80717 252.2007
209.26474 113.79997 252.14571
211.48282 113.8392 252.17961
213.33484 113.82571 252.13902
214.96378 113.87036 252.20311
218.71313 113.8265 252.2834
221.3588 113.78938 252.32358
223.72672 113.72734 252.32321
225.04604 113.91386 252.65982
226.82498 113.76292 252.48257
229.10678 113.63297 252.35721
231.05957 113.7291 252.59026
232.74333 113.69614 252.58621
235.13797 113.55453 252.52171
237.24118 113.44804 252.46902
238.74991 113.60744 252.89651
241.10239 113.57353 252.97905
243.07002 113.39235 252.78088
244.8233 113.32496 252.66777
247.0085 113.45792 253.22816
248.81462 113.27898 252.89024
251.53793 113.21181 252.87947
253.05402 113.17094 252.81683
255.1568 113.18715 253.15495
257.30392 113.1315 253.12361
258.5979 113.14605 253.41339
261.21655 113.06991 253.20964
262.94058 113.0434 253.04768
265.02127 113.04494 253.0117
266.84436 113.03748 253.15593
268.9043 113.00985 253.49997
270.81668 113.16028 252.60538
272.86826 113.09201 253.25304
274.89304 113.15551 253.08061
277.15631 113.24044 253.03442
278.86603 113.30282 253.02502
280.83972 113.37949 253.05641
282.66422 113.6831 252.58022
284.80161 113.47446 253.23438
286.80753 113.7118 253.04289
288.69321 113.7355 253.21233
290.88391 113.72369 253.52107
293.41821 113.69241 253.86269
294.72672 113.94839 253.64044
481.50565 113.78011 253.71497
482.83374 113.77464 253.31888
485.40158 113.59277 252.87779
487.1225 113.38446 252.81802
488.48862 113.19719 252.86801
490.98251 113.03262 253.19698
492.84204 113.03519 252.76418
495.04929 113.22855 253.21387
496.72314 113.47377 253.27815
499.07965 113.71696 252.92661
500.36243 113.89684 252.73157
141.77148 115.66999 253.95535
143.21384 115.31963 253.76796
144.96385 115.1772 253.43709
147.08411 115.07774 252.93108
148.89891 114.62094 252.83801
150.59473 114.43388 252.55591
152.63542 114.21976 252.20381
180.77083 114.06605 253.93404
184.29881 114.2597 253.80634
186.96576 114.27217 253.63811
188.53836 114.2534 253.51009
190.91728 114.546 253.63879
192.8244 114.68775 253.66074
194.98268 114.54569 253.35168
197.03403 114.83305 253.46872
198.67238 114.55414 253.13483
201.01074 114.99899 253.49187
202.88051 114.85884 253.35159
205.20772 115.0192 253.44501
207.10683 114.91279 253.32652
208.96391 115.12223 253.45839
210.87119 114.70091 253.11893
213.08313 114.9364 253.28424
214.86356 114.77316 253.17627
217.02715 114.99381 253.40193
218.64648 114.72534 253.26501
221.16095 114.66563 253.31744
222.26738 114.89851 253.56258
225.04405 114.63482 253.4259
226.64586 114.38344 253.27823
229.06192 114.50008 253.48454
231.01646 114.67666 253.75021
232.76611 114.27407 253.41008
235.14412 114.2089 253.52165
236.92239 114.24437 253.70944
238.15393 114.39573 253.98123
241.93251 114.07392 253.91812
243.46719 114.03515 253.99649
286.95544 114.32366 252.19067
288.95105 114.47894 252.29326
290.82785 114.31113 252.71332
293.22211 114.88764 252.48947
295.28751 115.28423 252.47314
297.06885 114.80551 253.07634
298.69202 114.81226 253.25739
301.08163 115.34869 253.16783
303.1517 115.24666 253.4892
304.95547 115.50774 253.53357
307.57822 115.61675 253.79272
308.7662 115.6983 253.90405
474.71313 115.60425 253.78799
477.06656 115.52887 253.17403
478.99063 114.96261 253.07605
481.64517 114.50657 252.70467
483.06326 114.35065 252.44046
499.06134 114.24 253.70892
501.20633 114.83739 253.35742
503.13568 115.0839 252.67854
504.14539 115.25314 252.3678
139.92271 116.98706 253.94994
141.27994 116.79828 253.64119
143.0251 116.98112 253.11017
145.01509 117.04176 252.55901
146.68623 116.59911 252.22601
295.6756 116.18546 252.0123
297.24426 116.32475 252.16199
299.0921 116.91116 252.2583
301.04132 117.46128 252.38899
302.68146 116.70863 252.75105
304.9454 117.09763 252.95549
306.88226 117.60065 253.11578
308.97754 116.74393 253.55566
311.08633 117.1594 253.73563
312.80078 117.40024 253.8889
473.20349 117.16726 253.59625
475.03168 116.88727 253.2384
476.89572 116.88226 252.68266
478.84122 116.81079 252.1591
503.32269 117.20597 253.55444
504.94644 116.95912 252.75195
506.3479 117.31161 252.12532
139.83786 118.5676 253.9079
140.91591 118.96947 253.71506
142.73552 119.06537 253.22636
144.98651 118.78079 252.53737
146.78206 118.9302 252.08904
148.22659 119.97452 252.01582
296.47757 119.89549 252.14703
298.9469 119.10735 252.24756
300.96649 118.72122 252.41563
302.95386 118.99805 252.7292
304.6629 119.04333 252.95155
307.45187 118.61887 253.20926
309.05609 119.22897 253.55925
311.07809 119.00553 253.75786
313.02368 118.99807 253.97438
471.40469 118.46359 253.93001
473.05728 119.11047 253.69347
474.8093 119.45782 253.38058
476.76852 118.66143 252.63989
478.8519 119.1235 252.13644
503.11166 119.12083 253.60927
505.07516 119.17619 252.65285
506.40637 118.69196 252.12004
141.84477 120.12846 253.82959
143.13481 120.45663 253.68507
144.99493 120.53469 253.20728
146.95888 121.16862 253.17859
148.77997 121.14574 252.63672
150.57756 121.65906 252.6132
152.32188 121.74907 252.22906
180.5683 121.95638 253.9221
185.56854 121.65482 253.82362
186.59219 121.83212 253.5432
189.36713 121.69292 253.51241
190.83846 121.5115 253.58528
192.86981 121.82635 253.12988
194.98552 121.46677 253.34099
197.20129 121.07978 253.5354
198.8129 121.1226 253.39978
201.05458 121.05724 253.44073
202.92302 121.19051 253.32578
205.26581 121.21792 253.24551
207.03604 121.08511 253.32236
208.95348 120.75623 253.58945
210.96707 121.01996 253.28889
213.24307 120.98714 253.31111
214.90875 121.13028 253.19063
216.87274 121.12189 253.29945
219.17302 121.14614 253.38379
221.47452 121.05997 253.54831
222.51323 121.28757 253.42624
225.15993 121.31887 253.49286
227.1853 121.4576 253.44576
229.18904 121.60491 253.40149
231.20068 121.43101 253.66093
233.14856 121.58894 253.58011
235.11674 121.72014 253.60144
236.78658 121.63014 253.84187
241.1124 121.87489 253.90764
242.4494 121.984 253.87762
283.78314 121.87167 252.03209
284.67648 121.85421 252.11259
287.43964 121.76321 252.36084
289.48172 121.64003 252.49037
291.03543 121.58861 252.62898
293.11392 121.29128 252.6349
294.88013 121.01662 252.64998
296.92349 120.86901 252.82532
299.00204 120.85533 253.05681
300.74371 120.80229 253.22197
302.55731 120.9724 253.55643
304.71628 120.62568 253.58818
306.53732 120.31535 253.61934
308.52817 120.24578 253.84372
474.88611 120.55768 253.8474
476.51431 121.005 253.72017
479.31769 121.20317 253.08513
481.03815 121.15594 252.54698
482.96848 121.69843 252.52467
497.82617 121.9425 253.9545
499.39294 121.57838 253.78769
501.06699 121.32726 253.28854
502.95465 121.05981 252.66658
505.091 120.20915 252.25337
148.65773 122.92078 253.0968
151.14505 122.86385 253.07561
152.8179 122.82465 253.07018
155.27551 122.92825 253.11531
156.89844 122.81932 252.86876
158.96722 122.93197 252.89059
160.98178 122.96956 253.07426
166.98695 122.96005 253.15234
169.05069 122.95493 253.25108
170.91005 122.97118 252.99561
172.87598 122.96497 253.034
175.15967 122.91184 253.01128
177.16066 122.88043 253.03133
178.95763 122.88918 252.98851
181.13206 122.9015 253.02873
182.67686 122.80049 252.91449
185.15102 122.88663 252.99135
187.04883 122.84586 252.9182
188.86551 122.74288 252.77541
191.28397 122.86653 252.83395
193.15208 122.93923 252.71265
195.0537 122.8613 253.01859
196.86247 122.92009 252.87811
199.09 122.86794 252.99724
201.10898 122.92178 252.8353
202.8978 122.91826 252.87906
205.00266 122.90858 252.94147
207.16115 122.77347 252.82492
209.14833 122.7 252.76567
213.047 122.94855 252.86711
216.8868 122.78899 252.77568
218.84941 122.85464 252.82509
221.26357 122.95866 252.91869
222.68066 122.93806 252.90578
225.04367 122.80753 252.79297
226.96158 122.9382 252.93637
229.13315 122.84943 252.70078
230.84428 122.82339 252.88464
233.13437 122.95125 253.07101
235.01358 122.72934 252.94292
236.91513 122.81029 253.32289
239.13901 122.85093 252.89008
241.07268 122.83404 253.10533
242.85295 122.82781 252.97487
244.94043 122.77583 253.00046
246.95152 122.80886 253.03406
248.90518 122.91372 252.89388
251.04927 122.93313 252.95573
252.8996 122.92689 253.06853
255.12683 122.87945 253.17558
257.02606 122.96151 253.26845
258.78839 122.96608 253.17532
270.69577 122.96391 252.95955
273.23535 122.96157 252.82344
275.17609 122.95079 253.20723
277.17084 122.8907 252.92844
279.1376 122.93629 252.98561
280.85205 122.83434 253.0659
282.97891 122.78331 252.95518
284.89023 122.83429 252.9817
286.78894 122.80186 253.19684
288.93021 122.86593 253.11093
291.0607 122.84167 253.03992
293.25784 122.78372 253.06953
294.98691 122.91051 253.01242
481.05142 122.96184 252.99268
483.01416 122.84794 252.97356
485.10504 122.88441 253.13814
486.86713 122.92786 253.21982
489.21021 122.97108 252.85529
494.92322 122.95599 252.95407
497.04156 122.89797 253.03963
499.07327 122.88906 253.01837
501.10583 122.86655 252.76424
143.29019 113.62949 255.63992
144.99306 113.67732 255.0666
146.80208 113.65041 254.69746
149.13232 113.29922 254.81682
150.77217 113.13934 255.10429
152.83249 113.06368 254.98146
154.80849 113.03864 254.97232
156.71286 113.05051 254.85811
159.19302 113.1423 255.24547
161.0854 113.18691 255.1375
162.84004 113.24117 254.922
165.08865 113.56576 255.364
167.07016 113.52539 254.86375
168.82568 113.68607 254.871
171.30774 113.67769 254.56088
172.9147 113.79066 254.55818
174.88902 113.82697 254.35062
176.98567 113.86558 254.1382
245.00085 113.97954 254.03674
247.95752 113.87349 254.11604
249.43742 113.79651 254.11996
250.78403 113.7627 254.17776
252.53751 113.66907 254.17534
254.59128 113.9024 254.73296
256.77264 113.71294 254.66093
259.06793 113.66164 254.80847
260.93848 113.47099 254.61627
262.64337 113.5461 255.01575
264.69772 113.5363 255.1633
266.76382 113.36723 254.97627
269.13144 113.24287 254.96896
270.66995 113.2384 255.05463
272.94025 113.11127 254.90297
274.85623 113.1954 255.42389
276.99411 113.06285 254.96523
279.14169 113.05618 254.97815
280.54395 113.05121 255.1319
283.16516 113.02687 254.96777
284.93051 113.02558 255.13708
287.08115 113.05946 255.23509
288.86075 113.132 254.94661
291.79141 113.18818 255.01099
293.12335 113.24062 255.00749
295.07495 113.35021 254.8801
296.90314 113.55093 254.59108
299.12396 113.39989 255.24028
300.9671 113.64969 255.01981
302.62579 113.4545 255.5123
304.83344 113.78245 255.16927
307.41663 113.85886 255.38495
308.52533 113.81056 255.60278
472.57413 113.90589 255.84016
475.09756 113.84979 255.35646
476.99594 113.59503 255.32899
478.91653 113.55646 254.90544
480.99847 113.28278 255.03992
482.78494 113.18981 254.86685
485.13284 113.02331 255.26129
486.93475 113.06361 255.23985
489.0321 113.07851 254.70929
490.91583 113.24966 254.89175
492.94482 113.56348 254.99274
494.52856 113.58022 254.405
496.69083 113.9216 254.19742
135.95834 115.2282 255.94392
137.26846 115.47926 255.3736
138.78796 115.26117 255.06628
140.76053 114.69243 254.99678
143.06256 114.59859 254.40924
145.04665 114.03635 254.48026
166.27942 114.01398 255.86942
169.51962 114.27632 255.64345
170.69225 114.51017 255.73296
172.84457 114.54384 255.46321
174.8219 114.73291 255.36101
177.42282 115.02942 255.28392
178.94656 114.99797 255.00981
181.48311 115.07834 254.74814
183.06697 114.93643 254.50133
185.06529 115.28455 254.60527
186.8455 115.09835 254.37137
189.14139 115.43181 254.44463
191.4057 115.62407 254.39247
192.74318 115.60791 254.31195
194.37595 115.61562 254.20827
196.93037 115.79586 254.12909
199.50037 115.848 254.06519
201.98274 115.87714 254.05307
205.34712 115.99067 254.06842
207.2525 115.97398 254.04102
218.14963 115.84076 254.03145
220.12737 115.88199 254.13002
225.93867 115.61244 254.21458
226.70207 115.51271 254.17805
228.89713 115.45801 254.23123
231.08005 115.57626 254.38821
232.86894 115.27905 254.28418
234.60738 115.29542 254.41359
236.87648 115.27386 254.56792
239.10942 115.1021 254.63834
241.23134 115.04347 254.76047
243.06795 115.04469 254.89696
244.63997 114.81261 254.8416
246.82681 114.98878 255.14975
248.7216 114.76836 255.13849
251.2429 114.86991 255.37215
252.76295 114.70283 255.42261
254.84044 114.4147 255.36617
256.78931 114.25417 255.4348
258.95654 114.17788 255.59489
260.09497 114.22355 255.77719
300.67972 114.10004 254.18999
303.00986 114.45345 254.08063
304.81143 114.2411 254.55673
307.09024 114.62671 254.45769
309.01514 114.60567 254.76341
310.80972 114.82747 254.80345
312.97507 114.89368 255.03496
314.89648 115.04618 255.15932
317.08179 115.01141 255.43477
318.68274 115.19733 255.47882
321.08951 115.40289 255.62042
323.3349 115.25761 255.94489
324.36273 115.71642 255.79416
464.93762 115.78935 255.87518
467.00687 115.56862 255.5555
468.94843 115.10404 255.45609
470.85629 114.92184 255.14719
472.92041 114.9483 254.66602
475.01346 114.47266 254.61298
476.85269 114.32893 254.25812
478.13937 114.03372 254.25296
493.90048 114.28983 255.77031
494.78717 114.35636 255.47684
496.82861 115.01385 255.30943
498.85345 115.06664 254.52908
500.77917 115.38116 254.06902
133.90762 117.35875 255.79094
134.63481 116.95255 255.63916
136.81261 117.12597 254.90025
138.91159 117.25758 254.19141
140.58929 116.18778 254.03354
177.37834 116.13802 255.93951
178.64151 116.38858 255.86137
180.73352 116.96233 255.71931
183.20375 117.02431 255.43082
184.89569 116.8822 255.31978
187.10162 117.06669 255.20062
189.26587 116.95934 255.0262
191.0692 117.46949 255.00177
192.85593 117.16637 254.81958
195.14423 116.93538 254.61798
197.34706 116.5435 254.37747
198.82727 117.16316 254.45299
200.7999 116.98497 254.40622
202.85832 116.56322 254.28741
204.87041 117.18904 254.41544
206.84235 116.77166 254.26933
208.72772 116.90437 254.31006
211.16614 117.08669 254.31169
213.0809 117.16937 254.28229
214.98679 117.03446 254.29048
216.82248 116.91801 254.31656
218.79662 116.83161 254.38995
220.87415 117.17265 254.52515
222.98424 116.67943 254.50154
225.11685 116.96875 254.63504
227.17322 116.67645 254.67201
228.93042 116.8904 254.78954
231.16635 117.05634 254.88162
233.16011 116.71438 254.91934
234.85452 116.97543 255.12595
237.12706 116.81297 255.24901
238.98132 117.04243 255.45482
240.65363 116.94501 255.56982
242.95134 117.31464 255.82973
244.72046 116.88464 255.92058
246.44604 116.11156 255.81769
313.28714 116.63453 254.11537
315.28076 117.10527 254.26466
316.79715 116.92709 254.49567
319.02103 116.68739 254.85126
320.89899 116.96537 254.9948
322.80252 116.8138 255.24446
324.80334 116.95547 255.42178
326.49042 117.30949 255.53815
328.8219 117.13464 255.82904
463.66019 117.12814 255.73904
464.86713 117.06546 255.48981
467.37262 117.11823 254.93781
468.90778 117.06713 254.5853
470.98077 116.85078 254.17233
472.2688 116.21861 254.05449
497.73361 116.30077 255.74236
498.66122 117.3184 255.64062
500.81332 116.88051 254.68552
502.26419 117.48069 254.16866
133.42479 118.71474 255.95648
135.13724 118.98504 255.47157
137.11308 118.91945 254.80411
138.85358 119.10217 254.31696
140.15797 119.94225 254.20714
177.65547 119.86335 255.90666
179.51945 119.43333 255.80322
180.73196 118.38824 255.84869
182.95149 119.10519 255.43292
184.9839 118.88774 255.32411
187.30597 119.27473 255.09482
189.2701 118.81732 255.07233
190.92389 119.00631 254.92004
193.21779 118.02396 254.89827
194.89604 119.02679 254.62515
197.20975 118.99467 254.47818
198.8886 118.95673 254.42812
201.13141 119.1388 254.35396
203.28685 118.89523 254.39229
205.26045 118.86511 254.39172
206.62608 118.82792 254.38557
209.33919 119.16106 254.28261
211.03181 119.20196 254.25212
212.69756 118.62033 254.34424
215.28084 118.46406 254.38385
217.24065 119.24554 254.30428
218.87271 119.05666 254.40421
221.35214 119.11868 254.48013
223.07762 118.90088 254.6082
224.8306 118.88956 254.65324
227.24948 119.30107 254.6763
229.54605 118.95793 254.85014
230.99931 119.12195 254.85382
232.79315 119.07117 254.96606
234.73372 118.98141 255.12679
236.98651 119.18357 255.24878
239.42151 118.99048 255.49797
240.8983 119.08458 255.58699
242.66525 118.97314 255.7571
245.15454 119.34267 255.8891
246.48413 119.75415 255.86673
248.48254 119.86739 255.99335
313.32819 119.50473 254.14751
314.94223 119.26904 254.30025
317.27371 119.23711 254.6254
318.89041 119.04613 254.75914
321.10297 119.00189 255.01509
322.94519 118.85423 255.15944
325.24408 119.11986 255.47354
327.07932 119.03418 255.69485
328.61987 118.53519 255.75351
330.62015 118.47827 255.95819
463.03513 118.63157 255.83708
465.13486 118.76398 255.4034
467.08496 119.2144 255.05574
469.08334 119.314 254.61707
471.12326 119.55941 254.24443
497.24564 119.78799 255.90329
498.88882 119.24152 255.41533
500.97086 118.99335 254.65443
502.30637 118.12066 254.18971
135.46053 120.41396 255.88322
137.09528 120.75541 255.58855
138.98889 121.10505 255.29106
141.14148 121.30497 254.86795
142.601 121.39622 254.5625
145.07475 121.77628 254.245
167.39792 121.79631 255.88129
169.17776 121.66882 255.76236
171.27637 121.5014 255.62831
173.20743 121.55016 255.32077
175.01802 121.34684 255.2666
176.83543 121.4665 254.92429
178.86887 121.04316 255.0096
181.01891 120.87109 254.85124
182.75189 120.90556 254.65356
184.89708 120.81891 254.57011
186.50377 120.7206 254.5419
189.04025 120.64748 254.399
191.47562 120.49532 254.33313
192.79529 120.47993 254.25737
194.80473 120.2478 254.23859
197.53564 120.15939 254.11053
199.8127 120.19167 254.04164
200.3522 120.14986 254.0545
202.29445 120.21293 254.00468
207.12038 120.00777 254.0437
219.50909 120.10472 254.10715
223.06561 120.2465 254.17323
225.30679 120.26678 254.25293
227.32646 120.56721 254.16512
229.0667 120.5156 254.25786
231.10524 120.37512 254.39813
232.97514 120.62687 254.35689
235.05574 120.95702 254.29091
237.16243 120.61544 254.66409
239.12285 120.86361 254.6604
241.20143 121.03516 254.67725
243.00407 120.9119 254.88094
244.8345 121.12848 254.87671
246.92049 120.9027 255.21326
249.28743 120.92934 255.43365
251.05478 121.37005 255.18263
253.01289 121.27721 255.457
254.63693 121.455 255.46252
256.81519 121.45236 255.74963
259.40158 121.55499 255.94281
262.72836 121.89883 255.93208
299.68069 121.88326 254.05206
300.2363 121.98788 254.25203
302.99017 121.78809 254.36093
305.0773 121.43429 254.25719
307.09818 121.37251 254.48524
308.65598 121.27507 254.60316
310.85812 121.32549 254.90889
312.76019 121.51266 255.36023
314.77734 121.0159 255.17731
316.8396 121.03574 255.42865
318.71121 120.47498 255.26599
