# .PCD v0.7 - Point Cloud Data file format
VERSION 0.7
FIELDS x y z
SIZE 4 4 4
TYPE F F F
COUNT 1 1 1
WIDTH 1611
HEIGHT 1
VIEWPOINT 0 0 0 1 0 0 0
POINTS 1611
DATA ascii
527.20624 117.0461 54.767212
528.87299 117.07517 54.727451
530.70337 116.811 54.773163
532.98456 117.02171 54.674053
534.5863 117.13221 54.622421
537.28381 116.90191 54.617256
539.15259 116.89269 54.590611
540.9198 117.30923 54.484447
543.28833 116.76678 54.568958
544.90875 116.78382 54.553013
546.47449 117.10789 55.167454
443.63861 118.1381 55.992947
445.12878 118.28053 55.981262
446.99084 118.40118 55.961647
449.22876 118.54272 55.941235
450.95721 118.48363 55.904598
453.02051 118.4967 55.876179
454.87155 118.96229 55.902973
457.59119 118.79736 55.843853
459.03552 118.75352 55.83466
460.87061 118.67999 55.782288
463.28354 119.10927 55.828503
464.89136 118.61594 55.719398
466.84277 119.16245 55.767467
468.98145 118.88219 55.685444
471.17844 119.14143 55.739895
473.06143 119.13104 55.676289
474.4603 119.38714 55.704926
477.11536 118.8013 55.54435
478.89792 119.01875 55.585354
481.13696 118.82501 55.489307
483.08084 119.30098 55.56152
485.01428 118.9515 55.432102
486.94907 119.18433 55.463619
489.11377 118.72309 55.335049
491.08093 118.91376 55.340069
493.02579 118.27238 55.204494
494.659 119.00011 55.295101
496.55826 119.27423 55.327888
499.19138 118.93874 55.202763
501.01242 118.8376 55.167923
503.07651 118.95916 55.176262
504.67767 119.19535 55.193127
507.04721 119.06117 55.104652
508.91058 119.06452 55.095436
511.16235 119.12408 55.062672
512.91028 119.05351 55.026772
515.53748 119.03729 54.985027
516.82721 118.87489 54.905273
519.45178 118.88422 54.865288
521.21899 119.04193 54.875416
522.89215 119.30967 54.922344
524.97089 118.66869 54.735973
527.1507 118.74189 54.763142
528.79962 119.03056 54.765079
531.1048 119.39487 54.801037
532.96094 119.16977 54.715519
534.78296 119.15049 54.697163
537.41534 119.30235 54.706974
538.97821 119.14919 54.621529
541.13757 118.99055 54.543392
542.76495 119.24162 54.569534
544.91547 118.82765 54.458134
546.42328 119.06468 54.950233
474.2529 120.14899 55.991089
481.0473 120.11093 55.863251
482.98303 120.35346 55.945
485.21454 120.21755 55.845455
487.05243 120.06279 55.7435
488.90906 120.42161 55.88567
490.05045 120.01052 55.670547
493.17075 120.29369 55.752052
494.89926 120.33392 55.754093
496.99487 120.55654 55.83136
499.32297 120.46542 55.751263
500.96933 120.46228 55.73917
503.27295 120.42329 55.649902
504.72211 120.5032 55.690872
506.91116 120.17264 55.472965
509.22754 120.58984 55.671986
511.46689 120.6441 55.666103
512.93427 120.64726 55.65202
515.32495 120.73087 55.659363
517.11914 120.44666 55.465351
519.02209 120.54918 55.481659
520.71637 120.60665 55.499332
522.71399 120.58573 55.455799
525.06439 120.77353 55.540173
527.07281 120.78059 55.518578
528.79871 120.90314 55.56078
531.27209 120.78042 55.457733
532.99188 120.50471 55.25034
534.89795 120.64706 55.318596
536.35693 120.96983 55.56398
538.77094 120.99881 55.474842
540.96991 120.92902 55.38805
542.73529 120.86735 55.340824
544.84979 120.88252 55.293633
546.46863 120.7692 55.575634
452.6539 113.98001 57.892136
455.61951 113.99722 57.819511
461.7356 113.87456 57.895618
462.92273 113.81943 57.955124
464.6106 113.91841 57.786392
466.77136 113.83414 57.871735
469.35181 113.77297 57.917316
470.86066 113.88238 57.736595
473.73007 113.75744 57.868557
474.39209 113.86607 57.702679
477.04651 113.70723 57.886536
478.73761 113.8501 57.655071
480.73438 113.77967 57.723316
482.8587 113.78305 57.688118
484.54956 113.84141 57.573318
486.80511 113.80968 57.591675
491.15231 113.72706 57.64616
492.04385 113.71177 57.637054
494.79883 113.77994 57.507221
497.30243 113.77557 57.473949
498.99185 113.75777 57.479298
501.24039 113.69393 57.568794
502.51489 113.84511 57.276943
504.59082 113.68046 57.522633
507.05807 113.63865 57.561428
508.3855 113.61171 57.570023
511.24097 113.72941 57.332718
513.41064 113.69662 57.353374
514.80902 113.62004 57.484062
516.48987 113.86578 57.046059
518.90002 113.54185 57.553589
520.62482 113.55813 57.508141
522.88269 113.65308 57.309349
524.87299 113.53134 57.484051
526.92456 113.69887 57.151688
529.10663 113.66917 57.139278
531.07532 113.54945 57.326233
532.93903 113.58184 57.264286
535.1178 113.66756 57.098568
537.48126 113.47894 57.381935
538.72333 113.6005 57.125927
541.01685 113.68449 56.935776
543.04327 113.60895 57.027439
544.8299 113.5863 57.088234
546.49927 113.61563 57.348946
351.99741 115.87179 57.962273
354.8439 115.92066 57.89336
358.92294 115.82098 57.873764
361.41699 115.70632 57.886822
362.8894 115.75165 57.844036
365.27734 115.56546 57.897293
366.74796 115.77271 57.773136
368.25427 115.87309 57.698261
370.04831 115.34406 57.952396
372.80807 115.81644 57.650902
375.31747 115.31503 57.887348
376.92661 115.66891 57.667988
378.78949 115.51054 57.732643
380.90506 115.51443 57.67812
383.00259 115.72703 57.527416
385.10428 115.47255 57.641277
387.27805 115.50238 57.5891
389.31812 114.92511 57.933556
390.7247 115.59357 57.498402
392.9313 115.21116 57.682655
395.07401 115.45171 57.516853
397.43283 115.51307 57.435886
398.95618 115.20631 57.58559
400.77097 115.27689 57.510696
403.27905 114.90258 57.733826
405.10797 115.13441 57.561623
407.13644 115.14856 57.51717
409.17068 115.07928 57.534431
411.14212 115.14713 57.461174
412.92505 115.21355 57.409443
415.02518 115.10334 57.401112
417.42072 115.55766 57.088959
418.59299 114.72398 57.637444
420.94305 115.37274 57.150391
423.15359 115.17481 57.235138
425.00589 115.1675 57.226467
427.19922 115.10176 57.232983
429.16064 115.358 57.040737
430.93082 115.05485 57.219921
432.87204 115.15761 57.116837
435.11581 114.86194 57.264771
437.02756 115.23196 56.957825
439.06085 115.10411 57.061089
440.67554 115.41254 56.801922
442.93954 114.58294 57.372833
445.01801 114.92953 57.104851
446.84854 115.04929 56.994106
448.91229 114.91279 57.024223
450.86621 114.69599 57.191517
452.94412 115.03627 56.886082
454.58377 115.05666 56.856213
457.07968 114.95937 56.905457
458.79523 115.00596 56.819897
461.31577 115.16837 56.676586
463.19177 114.72523 56.931072
464.95645 114.98252 56.724781
467.30725 114.9629 56.747875
469.08255 115.02378 56.598324
470.965 115.0444 56.608376
473.08417 114.94694 56.598942
474.74216 114.7737 56.742374
476.94879 115.14207 56.394196
479.07114 114.89886 56.570759
480.85519 114.88346 56.528149
483.14264 114.52417 56.797646
485.17767 114.67589 56.662605
487.23013 114.81363 56.468166
488.84583 114.66814 56.569592
491.20865 114.7926 56.423302
492.71957 114.74419 56.430016
495.19669 114.67115 56.43697
497.3226 114.80634 56.266766
498.16763 114.09595 56.98909
500.93149 114.72606 56.323204
503.06927 114.81314 56.193565
504.74719 114.12659 56.839718
507.01166 114.28748 56.635677
508.6748 114.28262 56.616749
511.30667 114.62708 56.213409
512.67395 114.2966 56.541748
515.51721 114.49702 56.275249
517.34625 114.51874 56.223896
519.16656 114.40276 56.318565
521.36981 114.33656 56.347927
522.78467 114.33826 56.330059
525.06805 114.35336 56.273998
526.79846 114.36977 56.219719
528.96539 114.15485 56.426849
531.09308 114.12677 56.420597
532.5498 114.24969 56.266396
534.24243 114.45187 56.016998
537.87341 114.33511 56.074951
538.70844 114.12827 56.288952
540.58569 114.18503 56.181099
543.04126 114.03436 56.349998
545.3147 114.13537 56.16888
546.48035 114.6345 56.698128
319.95526 117.9642 57.987995
323.28735 117.40077 57.983311
324.92026 117.59879 57.942253
326.92715 117.53922 57.91222
329.14542 117.65232 57.866386
331.09949 117.26286 57.877853
333.1535 117.3392 57.851906
334.66656 116.99139 57.863323
337.34082 117.19354 57.794956
339.30334 116.90884 57.823505
340.47687 117.15639 57.726177
342.94067 116.98435 57.759796
345.60031 117.1332 57.672878
346.87473 117.24354 57.626354
348.89478 117.06564 57.631569
351.27127 116.78732 57.678116
353.00836 117.15489 57.569836
354.88089 116.97533 57.56749
357.17474 116.94147 57.522511
358.53885 116.98537 57.498665
360.9425 116.99707 57.469276
362.89523 116.96106 57.450462
364.45294 116.9031 57.450863
366.84839 117.13654 57.343487
368.70737 117.10937 57.333416
371.49838 116.68636 57.345055
372.69662 116.97121 57.286674
375.05829 116.68835 57.323082
377.13062 116.61046 57.303562
379.02908 117.04238 57.163006
380.92166 116.9255 57.161697
383.23984 116.85931 57.145054
385.3652 116.67941 57.149075
386.59821 117.09689 57.030281
388.86203 117.2177 56.983742
391.32336 117.09531 56.959148
392.93628 117.11344 56.938976
395.45752 117.17965 56.853237
397.26871 116.95396 56.896118
398.96289 117.03719 56.852657
401.20239 117.11302 56.786228
403.19479 117.16845 56.744411
405.08786 116.91525 56.768833
407.0708 116.76008 56.777649
409.24838 117.03479 56.672993
411.22479 116.95165 56.670738
412.86938 116.94473 56.658661
415.27469 116.7868 56.635162
416.78464 117.13289 56.525505
419.17249 116.51913 56.639103
421.41504 117.20121 56.437977
423.16821 117.36953 56.400196
424.97495 117.25922 56.362698
426.99634 117.24287 56.366127
429.16711 116.95823 56.378895
431.31412 117.13445 56.300327
432.89224 116.78629 56.363499
435.52563 117.02175 56.220264
437.13742 117.21129 56.205708
439.10855 117.12221 56.183613
440.82001 116.85085 56.202766
443.0632 116.92632 56.164326
445.06381 116.88275 56.119972
446.8085 116.89523 56.068859
449.10986 116.63619 56.100983
451.09525 116.18998 56.215912
452.8588 116.45827 56.099838
457.11295 116.14492 56.131733
458.93881 116.18278 56.086273
460.79919 116.14064 56.073997
463.21072 116.07732 56.064465
466.00098 116.03928 56.036995
546.57184 117.17945 56.96957
325.59235 118.76241 57.964813
326.92505 118.84048 57.961895
329.19339 118.4224 57.872143
331.11899 118.70446 57.890301
332.80774 118.79844 57.865929
335.3873 118.74142 57.8405
336.91907 118.44685 57.749104
338.78232 119.31387 57.875214
340.94843 119.10817 57.79678
343.25607 118.8827 57.728436
345.26208 118.92265 57.70274
347.12466 118.85712 57.681492
349.14304 118.86193 57.628674
351.02945 119.09978 57.638451
353.35867 119.02627 57.589039
355.3981 119.06149 57.568501
356.97003 119.16814 57.558716
358.79343 119.13057 57.54055
361.15289 119.08888 57.479084
362.86627 118.82646 57.394974
364.85321 119.04141 57.427135
367.14209 118.88062 57.34433
368.9906 119.34112 57.420452
371.2009 119.03589 57.313942
372.39584 119.50276 57.395611
375.16064 119.52297 57.355244
377.06998 119.26007 57.275791
379.20297 119.04329 57.173454
381.19974 118.72697 57.085594
382.96426 119.07778 57.129513
384.88718 118.8541 57.056541
387.19778 118.81348 57.022877
389.48074 118.79496 56.956062
391.10565 119.14065 57.005962
392.78345 118.81284 56.898586
395.01276 118.91462 56.900101
397.32056 118.91225 56.876209
398.74164 119.05576 56.873692
401.10248 119.02458 56.824467
402.6351 119.12325 56.858173
405.14835 118.96528 56.751217
407.1955 118.8615 56.683796
409.07706 118.91553 56.682728
411.06833 119.35909 56.752033
413.12646 119.10079 56.634026
415.08572 119.15316 56.616211
416.76483 119.10048 56.585693
418.88159 118.88302 56.49641
420.87476 119.27423 56.553825
423.09723 118.92314 56.433449
424.68204 119.37057 56.511967
427.31104 118.8584 56.370392
428.77151 119.27802 56.439816
431.30295 118.68972 56.274216
432.92947 118.98273 56.292881
434.88971 118.88318 56.256371
436.87329 119.07324 56.244785
439.33826 119.01672 56.204395
441.08926 119.03101 56.181297
442.71985 118.9729 56.124592
444.89923 118.89832 56.066086
446.92374 119.40086 56.150585
449.25372 119.57355 56.163616
451.59845 119.96781 56.273655
452.7933 119.68516 56.147697
455.23358 119.76651 56.121071
456.87259 119.87685 56.145779
459.37949 119.70648 56.033516
461.51288 119.88878 56.076157
462.93506 119.9295 56.072105
467.16559 119.92345 56.00074
546.57483 118.882 57.154346
354.64575 120.14346 57.926472
358.67429 120.04937 57.817314
361.2261 120.341 57.911972
363.22937 120.33702 57.877663
366.59619 120.38959 57.85371
369.44525 120.39548 57.809704
371.09326 120.61753 57.908642
372.03494 120.71999 57.965061
374.84814 120.26831 57.657364
377.00366 120.62157 57.839813
378.60834 120.44238 57.707268
381.04565 120.06779 57.463428
383.35532 120.46671 57.645325
385.09143 120.46487 57.603607
386.77814 120.43571 57.557957
388.66144 120.70889 57.711159
391.02713 120.50027 57.541973
393.00836 120.58925 57.562447
395.07956 120.77934 57.634415
396.66519 120.42146 57.392143
398.64151 120.86831 57.648045
401.04633 120.81379 57.56551
403.04156 120.44856 57.293526
404.83102 121.18786 57.779362
407.22723 120.51624 57.290844
409.03345 120.74325 57.406494
411.45816 120.94194 57.513199
413.12946 121.14627 57.635159
415.18848 121.21646 57.662491
417.0856 120.87448 57.376648
418.8129 120.71831 57.235672
420.73373 120.94351 57.371277
422.76343 120.97392 57.365417
425.17331 121.02872 57.337112
426.54816 120.66329 57.088604
428.92395 120.93649 57.268711
430.95496 120.73125 57.06255
432.86078 120.87141 57.113232
434.86121 121.25311 57.367481
436.97168 121.01595 57.16048
438.92221 121.22365 57.29818
440.99454 120.76539 56.93222
442.69434 121.52933 57.481518
444.88544 121.37207 57.369255
446.92224 120.96825 57.008255
448.97772 121.31773 57.213055
450.7471 120.99667 56.953335
452.93472 121.05554 56.981415
455.2782 121.13871 56.942287
456.64346 120.95185 56.819412
459.16147 120.94682 56.758495
461.00848 120.99725 56.772011
462.72693 121.43447 57.076683
465.22427 120.98678 56.715298
467.03671 120.83026 56.574604
469.164 120.98712 56.633007
470.92404 121.35416 56.91341
472.7146 120.83395 56.494953
474.83884 121.40063 56.882244
477.02472 121.28516 56.763504
478.62466 121.00005 56.48571
480.97635 120.87746 56.3218
482.80847 121.32211 56.663914
485.07803 121.28199 56.589848
487.13644 121.19189 56.484409
488.54074 121.25778 56.511013
491.03656 121.31935 56.516582
492.74005 121.47008 56.663506
494.95062 121.64628 56.801262
496.96954 121.44753 56.523998
498.61307 121.38497 56.439117
501.21713 121.47056 56.485744
503.25735 121.57854 56.56963
505.05444 121.56201 56.522419
507.25244 121.48175 56.406727
509.29251 121.38714 56.27898
510.91202 121.40138 56.253956
512.50031 121.7593 56.598827
514.77618 121.67872 56.464703
517.29834 121.70618 56.477703
518.98572 121.75049 56.468895
520.06116 121.47469 56.173321
522.66034 121.67043 56.326981
524.45544 121.51764 56.145084
527.00049 121.8537 56.472424
529.45184 121.72644 56.293423
530.61542 121.51189 56.039532
533.88885 121.98997 56.533035
536.40857 121.79922 56.247929
539.03076 121.83859 56.233513
540.41449 121.90737 56.309319
543.64716 121.72952 56.046043
544.94531 121.81875 56.133904
546.56995 120.89523 56.862
450.99713 122.87572 57.067696
457.05399 122.85672 57.197979
459.30017 122.89139 57.265804
460.92529 122.8784 56.935188
462.72015 122.81226 57.204117
467.35968 122.81541 57.152477
469.24905 122.9201 56.878983
473.07162 122.85727 57.042648
475.05151 122.93798 57.068947
477.09518 122.86294 56.854462
479.00116 122.87446 57.002098
483.03296 122.88657 56.993355
484.84509 122.89438 56.915222
486.931 122.88203 57.242867
489.15039 122.91414 57.216385
490.92191 122.82748 57.235241
493.03439 122.86868 57.039204
494.94876 122.78553 57.098625
496.95428 122.76778 57.115368
499.07709 122.87264 57.008675
500.85147 122.84352 57.031944
503.09848 122.95452 56.91703
504.89957 122.88817 57.229382
507.06921 122.82343 57.147171
510.95285 122.81183 57.116154
512.90729 122.82058 56.978016
514.86517 122.81088 57.121056
516.797 122.8788 56.844048
518.93176 122.87707 57.007496
520.77643 122.7429 57.003998
522.83618 122.84201 57.018795
524.90857 122.83152 56.82058
526.93689 122.85336 57.127068
529.08447 122.76665 56.92112
530.92706 122.7202 57.0872
533.26703 122.87619 57.229092
535.06226 122.79028 57.207413
536.99243 122.79401 57.230106
539.01843 122.81865 56.940125
541.01886 122.79326 57.102577
543.22278 122.90266 57.073582
545.0379 122.73391 56.650013
546.95288 122.89138 57.214581
327.54178 113.96817 59.936203
334.72446 113.92413 59.882729
338.62686 113.8586 59.913109
340.65173 113.92426 59.786514
344.57996 113.97234 59.654179
346.44769 113.9223 59.695396
349.00897 113.93464 59.636269
351.04614 113.85254 59.720535
353.37167 113.8182 59.731915
354.92172 113.69839 59.882191
356.54614 113.84143 59.648048
358.93805 113.72615 59.784161
360.70239 113.74182 59.728325
363.2081 113.88931 59.470959
365.12787 113.76282 59.635956
367.04233 113.8554 59.457272
369.00613 113.89776 59.364933
370.68335 113.70594 59.631554
372.86725 113.76359 59.509026
375.57855 113.63897 59.672504
377.1351 113.65194 59.63842
379.18143 113.68349 59.555832
381.13406 113.63751 59.603916
383.62234 113.65154 59.546375
384.91882 113.55105 59.69133
386.95499 113.66192 59.46941
389.65402 113.46173 59.802322
390.98447 113.67128 59.390652
393.13272 113.62329 59.453243
394.49707 113.6664 59.3078
396.91388 113.39048 59.837509
399.18555 113.50227 59.566101
400.8378 113.65077 59.274082
403.08948 113.50246 59.522812
405.18698 113.57062 59.360706
406.59338 113.68842 59.102058
409.24863 113.53507 59.35791
411.20486 113.64857 59.120502
413.09134 113.60107 59.133049
415.11221 113.53835 59.300735
417.08755 113.68992 58.950199
418.46838 113.41533 59.434975
421.20932 113.44694 59.360447
423.21347 113.43564 59.382198
424.88153 113.64832 58.903522
426.98468 113.63892 58.955921
428.78726 113.34314 59.479771
431.22711 113.51733 59.054768
433.02045 113.4659 59.125603
435.33228 113.47668 59.074646
437.36023 113.49282 59.015644
439.18448 113.51524 58.95256
440.84766 113.55785 58.779015
442.8837 113.3666 59.211273
445.00769 113.31604 59.36348
446.86203 113.39839 59.088612
449.0293 113.43587 58.969265
451.00415 113.38778 59.056404
453.25449 113.52892 58.748806
455.11273 113.42088 58.918365
456.77536 113.27438 59.271385
459.04971 113.34194 58.998909
461.18823 113.34565 58.994724
462.73859 113.4337 58.795689
464.82874 113.32792 58.952675
466.86771 113.20559 59.371372
469.31158 113.39398 58.791843
471.27792 113.45636 58.525555
472.80365 113.51411 58.382751
475.27573 113.26263 58.980396
476.65961 113.29495 58.860874
478.698 113.21649 59.135647
480.80984 113.31881 58.693848
482.97015 113.19757 59.135635
484.95438 113.26743 58.876682
487.16974 113.32597 58.572151
488.82416 113.21987 58.919628
491.03885 113.18876 59.066971
493.10742 113.13479 59.213394
495.40198 113.16452 59.042297
496.8541 113.17649 58.992199
499.08594 113.11509 59.180874
501.15631 113.23882 58.621864
502.33643 113.22161 58.780102
504.97443 113.14635 58.991898
506.74014 113.17404 58.835098
509.33081 113.14502 58.925442
511.25009 113.11008 59.013535
513.0097 113.20324 58.541557
515.16669 113.13485 58.911724
516.63135 113.10237 59.063419
518.80847 113.07401 59.231983
521.08441 113.07504 59.14542
523.10754 113.10091 58.812977
525.04718 113.18211 58.428547
527.0979 113.13452 58.701023
528.74811 113.08364 59.042553
530.9118 113.04892 59.091816
533.09601 113.091 58.735531
534.63464 113.0766 58.81422
537.03894 113.06432 59.004738
539.15308 113.06958 59.187775
540.95178 113.08421 58.859291
542.9613 113.0837 58.797596
544.72656 113.04944 59.126469
546.51324 113.36875 58.929249
228.66142 115.91453 59.94072
230.28775 115.92673 59.908676
233.00804 115.924 59.865875
234.87822 115.84377 59.872986
237.32207 115.71612 59.892925
239.39911 115.70724 59.864758
240.85223 115.67631 59.857521
243.25598 115.55113 59.880718
245.43439 115.96422 59.645779
246.95757 115.79433 59.700329
248.90869 115.54614 59.78989
250.9507 115.44893 59.826702
253.3856 115.55704 59.72641
254.56212 115.24042 59.89616
256.93726 115.40889 59.756676
259.19238 115.52141 59.634033
261.01187 115.39843 59.703281
262.91684 115.49024 59.626644
264.94669 115.50316 59.57373
267.5575 115.22665 59.701859
268.90665 115.39484 59.584839
270.71588 115.45017 59.487534
272.83456 115.51952 59.453526
275.15253 115.59632 59.367611
276.8584 115.19467 59.571404
279.19043 115.24553 59.513432
280.93338 115.17712 59.526329
282.96179 115.17035 59.512268
284.888 114.90846 59.665749
286.71048 115.24139 59.419174
289.37271 115.6999 59.063099
291.10956 115.18402 59.391052
293.11023 115.22414 59.286762
294.89642 115.07257 59.39534
297.07809 115.466 59.072578
298.88129 115.01313 59.376148
301.0051 115.16677 59.223026
303.22571 114.66139 59.576759
304.92078 115.22048 59.128857
306.8071 115.03642 59.221741
309.02982 115.13461 59.134872
310.7803 115.11355 59.137268
313.3367 115.07739 59.109943
315.0195 115.05241 59.113697
317.18402 115.14004 58.956932
318.94647 114.81058 59.221115
321.10773 114.74294 59.251892
322.91183 114.86774 59.101135
325.25067 114.6382 59.248344
327.55069 114.69894 59.118866
328.83759 114.78674 59.082203
330.94357 114.9996 58.902538
333.04517 114.95017 58.870022
335.22748 114.61251 59.136452
336.79764 115.00944 58.776138
339.46567 114.99367 58.750351
340.84442 114.94432 58.784069
342.95746 115.20105 58.547642
344.63538 114.86051 58.81332
346.96088 115.06316 58.582623
348.99017 114.92881 58.642658
350.83414 114.89274 58.610764
353.03009 114.8457 58.617588
354.97552 114.69307 58.730358
356.98859 114.73728 58.660881
358.91571 114.62456 58.754189
360.70486 114.64129 58.662228
363.12268 114.77367 58.518982
365.01144 114.69025 58.558434
366.81046 114.4551 58.763035
368.86374 114.6252 58.564857
371.10062 114.26737 58.855396
373.55112 114.75588 58.332394
375.2666 114.64587 58.420681
377.50937 114.51245 58.495918
378.83414 114.63963 58.374279
380.92984 114.51471 58.44289
382.89624 114.43723 58.497875
384.93304 114.32243 58.580505
386.94601 114.19099 58.670143
390.90149 114.24548 58.575718
392.60696 114.44504 58.323399
395.56641 114.06535 58.695221
397.33386 114.33581 58.355907
398.42645 114.4186 58.26469
401.38101 114.3136 58.318363
402.59558 114.07996 58.560467
405.03812 114.3642 58.198154
409.21933 114.36543 58.129177
410.64148 114.24037 58.259003
412.79385 114.22144 58.215271
417.64545 114.18965 58.191406
419.67163 114.1887 58.158176
420.72974 114.24339 58.064728
423.09216 114.13892 58.144314
429.16345 114.069 58.145638
432.34189 114.02692 58.15424
434.79892 114.03056 58.10923
436.63126 114.00148 58.121086
546.60944 115.18813 59.291405
197.69629 117.90253 59.974319
200.8802 117.64553 59.945213
203.49361 117.45665 59.920666
205.0081 117.51221 59.892105
207.18347 117.14307 59.908546
208.80884 117.42175 59.851868
210.98833 117.16575 59.860321
212.82198 117.41375 59.786987
215.02675 116.7806 59.873833
217.14738 116.82621 59.82449
219.02789 117.04176 59.76133
220.95731 117.08363 59.712452
223.25467 117.07027 59.682056
224.98787 116.89785 59.682823
226.72316 116.80094 59.726318
228.93069 116.99888 59.601074
231.06128 116.78874 59.610123
233.42905 116.88856 59.534473
235.37103 117.50791 59.412361
237.4444 117.0142 59.479996
239.41908 117.04548 59.44091
241.29195 117.441 59.325062
243.13164 116.99593 59.397789
245.11653 117.26322 59.279766
246.84128 117.24713 59.248604
248.90805 116.90557 59.308334
251.01619 117.39003 59.181843
253.07922 117.07717 59.181866
255.22772 116.87057 59.215374
256.92819 117.20508 59.099277
259.19815 116.79874 59.165558
260.7706 116.71104 59.168713
263.11404 116.84414 59.06424
264.87894 117.51562 58.93317
266.77469 117.0155 58.994724
268.9353 117.04349 58.95697
271.17221 117.11682 58.894577
273.58658 116.97301 58.883453
274.73459 117.00378 58.874508
276.64392 117.14902 58.802017
278.7934 117.04211 58.797993
280.40601 116.69772 58.82737
283.07748 116.87247 58.757637
285.02448 117.24411 58.641853
287.14688 116.86062 58.69453
288.76047 117.02788 58.63237
291.20889 116.50723 58.716614
292.80145 116.8336 58.589787
294.99631 117.3623 58.47295
296.99954 116.73588 58.568432
299.04761 117.17867 58.431381
300.64435 116.88522 58.462395
302.89261 116.83526 58.435257
305.30319 116.82644 58.415695
307.17789 117.02734 58.328098
308.80673 116.79982 58.378792
310.73898 117.44473 58.209248
313.35706 116.55371 58.322655
314.72629 116.81152 58.253124
317.18076 117.2673 58.139782
319.02618 117.08029 58.118576
320.68387 116.617 58.19558
323.55383 116.69546 58.12566
324.70996 116.37778 58.196987
326.65002 116.82192 58.035393
328.50946 116.29089 58.161266
330.82172 116.33152 58.109863
333.55441 116.29493 58.07077
335.34863 116.09384 58.128464
336.62433 116.10835 58.101028
338.49756 116.11205 58.068951
546.60699 116.71986 59.136082
198.45935 118.28157 59.978062
200.21362 118.27366 59.948944
203.06158 118.57753 59.932407
205.03459 118.5788 59.897537
206.96461 118.74921 59.904041
208.77237 118.79103 59.88694
211.57613 118.5815 59.811596
212.88467 118.98725 59.827564
214.53076 118.54838 59.752716
217.19839 118.70502 59.757092
219.34581 118.82264 59.724934
220.75418 118.88103 59.732582
223.25307 119.19468 59.762447
224.7545 119.26353 59.752808
226.76869 119.22332 59.702854
228.64674 118.54001 59.530857
231.09116 119.06004 59.59568
232.985 118.75612 59.494629
234.82172 118.61169 59.447628
237.20024 118.89429 59.45385
238.93069 119.21584 59.484016
241.32922 118.83743 59.374168
243.23468 119.063 59.381771
244.72758 119.37848 59.444111
246.90143 119.71786 59.490509
248.75603 118.76337 59.27647
250.87097 118.98818 59.270115
253.17952 118.79499 59.169552
255.3708 118.81228 59.132587
257.12952 118.71971 59.092854
258.7641 118.81288 59.087067
260.65256 119.29056 59.159534
262.69034 119.08482 59.070377
264.535 119.01421 59.013157
266.92947 119.18464 59.036343
269.24969 118.86809 58.949253
270.87546 118.75997 58.890076
272.98172 119.22521 58.933842
274.77481 118.87858 58.828289
277.03641 119.23454 58.862225
278.74042 118.49387 58.695869
281.05179 119.00659 58.757519
283.01346 118.90703 58.714893
285.00183 119.17873 58.737675
286.77582 118.99871 58.646633
288.9259 118.86937 58.604805
290.80054 119.62759 58.753399
293.53464 119.09157 58.576591
295.00986 118.89472 58.494205
297.4346 119.10728 58.511848
299.1391 118.90111 58.449944
301.12988 118.83213 58.415348
302.95242 119.05174 58.403267
304.90308 119.15117 58.397774
306.8309 118.92934 58.324547
309.39667 119.12228 58.313938
311.08411 119.12492 58.315071
313.1875 119.31007 58.321365
315.12952 118.81428 58.171059
317.37329 119.32941 58.247379
318.97525 118.73727 58.107098
321.13168 119.27169 58.152702
322.52228 118.94778 58.053867
325.15967 119.64909 58.206402
327.27332 119.92085 58.266159
328.19452 119.42675 58.077015
330.81076 119.68896 58.120564
332.75674 119.84792 58.143299
334.8183 119.77197 58.075653
336.8959 119.80774 58.057495
340.457 119.88053 58.033745
343.76062 119.99819 58.035088
546.60571 119.12223 59.056797
227.14391 120.159 59.999588
228.25926 120.12234 59.964424
231.66808 120.18356 59.937733
233.10579 120.16776 59.907074
234.47198 120.13367 59.869041
236.76311 120.32108 59.919323
239.24164 120.18677 59.816525
243.6996 120.05299 59.681908
244.93445 120.16795 59.715508
247.31024 120.34215 59.761444
249.16953 120.30266 59.716381
251.04791 120.38103 59.74234
253.01482 120.30507 59.657318
254.46327 120.42833 59.694374
256.78122 120.28069 59.576141
259.43512 120.26987 59.545528
260.64026 120.38174 59.562534
263.56219 120.59542 59.657825
265.21295 120.78156 59.748077
266.94116 120.66714 59.645878
268.72546 120.57073 59.567554
271.36447 120.783 59.642395
272.98917 120.61505 59.536907
275.17352 120.85841 59.654194
276.82501 120.76558 59.554146
279.15469 120.78991 59.5224
280.82117 120.65109 59.437943
283.21701 120.76141 59.444168
285.1041 120.52947 59.279995
286.89795 120.8761 59.471817
289.08313 121.15908 59.667381
290.81964 120.75623 59.346424
292.9509 121.03205 59.501873
294.96185 120.70723 59.236542
296.71652 120.56881 59.106178
298.7095 120.85148 59.259449
301.02383 120.66015 59.100353
302.57144 120.78543 59.197353
305.27966 121.06467 59.31181
307.1734 121.22349 59.448055
308.93018 121.03172 59.235447
311.29556 120.85252 59.119701
312.746 121.24432 59.381344
315.2388 121.1729 59.261318
317.22275 121.16161 59.222755
319.26343 120.96489 59.045265
321.36172 121.18502 59.203533
323.01733 120.78587 58.848862
325.13837 121.14856 59.064007
326.8699 121.22095 59.141682
329.31989 121.21358 59.093323
330.97702 121.01955 58.903332
332.89639 121.14026 58.961357
335.26089 121.16409 58.985733
337.05862 120.66558 58.509068
339.00656 121.06789 58.835083
341.09027 121.07333 58.803963
342.99435 120.97115 58.696472
344.61557 121.29824 58.89423
346.84802 121.44495 58.971397
349.17462 121.11988 58.664558
350.95129 120.82114 58.405388
352.51663 121.65635 59.079357
354.95367 121.1978 58.617126
356.78156 121.06198 58.476368
358.97079 121.38992 58.72179
360.95154 121.27542 58.60117
362.98993 121.47354 58.717163
364.6441 121.50672 58.767696
367.14615 121.50556 58.713524
368.82013 121.24729 58.451714
371.08823 121.27476 58.430134
373.10138 121.3972 58.487026
375.00943 121.49037 58.546989
377.22931 121.59458 58.607494
378.76288 121.70241 58.698357
380.95239 121.21214 58.200619
382.84692 121.52889 58.468155
384.79272 121.69812 58.602783
386.69305 121.52 58.388145
388.5993 121.68156 58.518311
390.71613 121.56949 58.363876
392.88116 121.51793 58.277229
395.20273 121.5378 58.259483
396.79254 121.43755 58.133461
399.48407 121.76649 58.418842
401.30219 121.83008 58.486198
402.34384 121.59856 58.213848
404.9346 121.6608 58.233509
406.33966 121.46439 58.005623
409.02917 121.76752 58.265213
410.35257 121.80583 58.308968
412.22098 121.75251 58.198486
414.89526 121.66781 58.070435
417.13504 121.78368 58.172585
419.03442 121.73428 58.069859
421.22229 121.84895 58.15836
422.48593 121.84593 58.146355
425.57449 121.98025 58.274132
426.54114 121.85529 58.07999
430.06656 121.91607 58.109692
436.65274 121.92756 58.019382
546.60217 120.74986 58.839561
329.08298 122.73801 59.302547
335.09085 122.94933 58.97937
336.77255 122.94501 59.161213
339.19363 122.88622 59.241371
340.91071 122.95248 59.177307
343.28741 122.84339 58.954536
344.80051 122.83686 59.215214
346.79984 122.90295 59.451458
349.08307 122.93838 59.109131
351.06735 122.85139 58.909138
353.32541 122.92105 59.140129
355.06281 122.93202 59.071354
356.91595 122.91013 59.035454
359.08298 122.73337 59.271652
360.93549 122.92273 59.005768
362.93762 122.89108 59.147545
364.8992 122.81301 59.150093
366.77335 122.77541 59.15707
369.03204 122.88342 59.13509
370.90021 122.9065 59.125919
373.00089 122.83898 59.232735
374.99841 122.86107 59.186054
376.98969 122.83257 59.249695
378.72485 122.93302 59.13879
381.03827 122.85425 59.133507
383.06607 122.66567 59.128387
385.02594 122.90076 59.096188
386.91946 122.66961 58.876709
388.92642 122.70377 58.904579
390.88812 122.77277 59.117287
392.97614 122.85639 58.911812
394.98914 122.87703 59.105049
397.15515 122.86479 59.030006
399.11166 122.81514 59.0201
401.01822 122.91816 59.144123
402.88095 122.79631 59.022572
405.26425 122.76518 59.150307
407.19125 122.85869 59.133137
408.9303 122.84075 58.909569
411.11539 122.65836 59.046429
413.0545 122.80308 59.214542
414.9823 122.77617 59.148712
416.815 122.67299 58.923229
418.90964 122.77726 58.92617
420.90155 122.86776 59.048676
422.9202 122.86237 58.994087
424.99939 122.83862 58.954227
426.83789 122.86179 59.094631
429.07413 122.91253 59.134918
430.97318 122.89536 59.034664
432.93555 122.82265 58.996849
435.0379 122.67023 58.959827
437.00006 122.83438 59.24839
439.0737 122.79131 58.898415
441.06046 122.88173 59.161232
443.06772 122.80554 59.012367
445.12939 122.85566 59.006439
447.00568 122.93555 59.0732
449.159 122.77641 58.985283
450.90109 122.89446 58.93507
453.25989 122.91218 59.209003
454.8609 122.88055 59.01371
457.05737 122.87932 58.854542
459.2164 122.8717 59.015327
461.16608 122.9315 59.082523
462.90237 122.85429 59.131737
464.98013 122.85966 58.980785
466.87335 122.87074 58.892242
468.87079 122.8362 58.880291
470.92215 122.88217 58.947594
473.0697 122.89081 58.942345
475.00763 122.89214 59.097961
477.00009 122.91042 59.108761
478.75284 122.94714 59.070404
480.68484 122.93973 59.121861
483.0712 122.93047 59.270832
484.90524 122.94571 59.107929
486.97195 122.86936 58.961727
489.06671 122.96888 59.096481
490.8194 122.9431 59.064201
492.69089 122.92137 59.099636
495.03592 122.90535 59.018349
497.00058 122.96867 59.000938
501.15601 122.96065 59.176224
502.97949 122.96668 59.103519
504.95374 122.9334 59.189697
510.98819 122.93487 58.860321
512.99329 122.95998 59.197342
516.92834 122.96313 59.220951
518.77557 122.95388 58.998611
521.2171 122.97261 58.750687
523.16028 122.96114 58.986095
525.02191 122.97849 59.172947
527.0686 122.97407 58.987621
528.9494 122.96974 59.152962
530.83722 122.9709 59.034424
535.00812 122.97348 58.958534
536.82721 122.97263 58.913048
538.96143 122.9794 59.231411
545.22534 122.97944 58.985023
546.70972 122.94695 59.000732
198.80093 113.98413 61.999352
202.01343 113.948 61.998917
205.51872 113.95383 61.933784
206.16687 113.92959 61.95792
209.23605 113.93452 61.901131
210.59567 113.98898 61.801331
217.53281 113.92436 61.781231
218.84227 113.87785 61.826439
221.39656 113.7423 61.978668
222.70461 113.95016 61.660568
225.02409 113.79486 61.844807
227.15996 113.7574 61.863716
230.70413 113.83089 61.701328
233.51062 113.84653 61.633514
235.12436 113.83802 61.619518
236.94598 113.75831 61.703857
239.41577 113.8539 61.527302
240.89659 113.74789 61.673557
243.12683 113.7677 61.609119
245.22888 113.67282 61.70097
246.59459 113.83842 61.440918
249.49609 113.68051 61.65329
250.86673 113.5648 61.829979
253.10158 113.60682 61.721607
255.1886 113.54028 61.812538
257.0144 113.71825 61.453896
259.52441 113.65072 61.523262
261.46127 113.73202 61.389751
263.0722 113.63062 61.516483
265.11502 113.67969 61.400429
266.99811 113.75747 61.231735
268.73697 113.68125 61.330956
270.47144 113.43324 61.794502
272.6347 113.7664 61.132858
274.57431 113.55432 61.478451
276.83594 113.7437 61.125275
278.87473 113.51082 61.539211
281.12457 113.51394 61.470192
282.92834 113.58265 61.272213
285.2345 113.46154 61.515213
287.07147 113.75082 60.911373
288.90317 113.70044 60.971348
291.0321 113.49475 61.344601
293.02145 113.44448 61.405029
294.85321 113.50753 61.309113
297.17664 113.52045 61.254799
298.76065 113.64822 60.923016
301.03735 113.57298 61.04213
303.02356 113.62646 60.906933
304.95102 113.49343 61.181297
307.03378 113.48657 61.173096
308.76956 113.50468 61.072765
310.98129 113.61746 60.827564
312.67365 113.57999 60.88916
314.79965 113.54282 60.894726
316.73175 113.50845 60.999454
319.16437 113.50874 60.936966
320.81009 113.40433 61.117512
323.04001 113.50471 60.871822
325.01828 113.35026 61.187737
327.12567 113.46864 60.869911
329.08331 113.38252 61.017632
330.97003 113.41769 60.966793
332.98517 113.28597 61.192329
335.11203 113.37881 61.007141
337.02667 113.38233 60.911789
338.70358 113.52219 60.575031
340.7995 113.39272 60.889652
342.89612 113.32794 60.989902
345.39719 113.27929 61.100029
346.99036 113.35556 60.869968
348.89355 113.28102 61.050812
351.2363 113.45809 60.439617
352.92346 113.38427 60.703213
354.93604 113.39228 60.638569
357.37381 113.19919 61.141144
359.06244 113.28638 60.833855
361.11325 113.11212 61.434582
362.68597 113.23085 60.921192
365.09445 113.27814 60.693653
366.97305 113.14438 61.15313
368.81192 113.17261 60.972374
371.08963 113.22869 60.775928
372.91406 113.17293 61.007458
374.72363 113.1284 61.123505
376.86948 113.12171 61.249329
378.35617 113.09056 61.434429
380.96078 113.16845 60.845688
382.94653 113.10262 61.270588
385.0369 113.09872 61.15332
387.0174 113.25504 60.362194
389.40805 113.19943 60.530968
391.39392 113.14583 60.883518
392.69727 113.12296 60.94709
394.68292 113.0446 61.364265
397.24429 113.08302 61.153511
399.17117 113.12385 60.753475
401.10931 113.15797 60.541538
403.3082 113.13511 60.664246
404.77698 113.07612 61.040833
407.24109 113.09888 60.907299
408.75122 113.09517 60.807556
411.02567 113.10886 60.766216
413.06924 113.0397 61.276638
414.67883 113.07247 60.872013
416.86285 113.08838 60.79752
419.02658 113.07131 60.859577
420.75967 113.09491 60.66758
423.22937 113.05657 60.973808
425.23853 113.06445 60.801289
427.00601 113.04836 61.118187
429.35999 113.04699 60.860847
431.3837 113.07121 60.591667
432.85934 113.03532 61.240093
434.8642 113.06014 60.801521
437.31454 113.03231 61.166279
438.85168 113.03871 61.081547
441.42453 113.04331 60.902695
443.15375 113.03896 61.055347
445.03128 113.04568 60.979824
446.74481 113.05504 61.253319
449.14261 113.07549 61.173233
451.00262 113.06026 60.675137
452.99274 113.04226 61.021111
454.87576 113.06144 61.10202
457.03445 113.0374 60.881706
458.89096 113.03432 60.930794
460.84177 113.07864 61.186401
463.17093 113.04583 61.021889
464.96689 113.07627 61.326324
466.66983 113.01393 60.767097
469.19809 113.08327 60.815666
470.6384 113.07715 61.092377
473.03995 113.09441 60.819817
475.00275 113.10665 61.286133
476.80469 113.10312 61.166782
478.9548 113.08609 60.99202
481.01575 113.06495 60.936916
482.79584 113.12207 61.219429
485.19507 113.05082 60.836021
487.15695 113.15438 61.348618
489.37354 113.17303 61.369244
490.76831 113.16707 61.351585
493.18851 113.09956 60.934681
495.02359 113.17238 61.310852
497.2818 113.03569 60.520325
499.62906 113.18615 61.267822
500.93796 113.12565 61.000477
502.75903 113.04024 60.483536
504.93152 113.11906 60.788349
506.97397 113.21233 61.271763
509.02777 113.16382 61.01281
510.69568 113.23743 61.347092
513.07159 113.2205 61.165211
514.93506 113.2233 61.151478
516.74768 113.28861 61.309155
518.93347 113.23423 61.085476
520.79553 113.03545 60.1366
523.30231 113.28116 61.146687
525.24542 113.28679 61.154285
526.99097 113.23914 60.986198
529.23944 113.28795 61.066818
530.76147 113.24438 60.964058
533.37476 113.25881 61.00536
535.53735 113.43053 61.416225
536.95807 113.27435 60.991165
538.98303 113.41079 61.317337
540.86951 113.36721 61.183281
543.20905 113.39987 61.151516
544.79242 113.34218 60.994839
546.34247 113.4616 60.909145
104.82855 115.88811 61.959461
108.18811 115.86166 61.91737
110.56848 115.98585 61.820881
113.60456 115.63619 61.934753
114.95177 115.83703 61.819267
116.59389 115.61964 61.89698
118.51741 115.47075 61.939152
121.27203 115.73478 61.770763
123.5426 115.62978 61.776718
125.134 115.59803 61.778194
126.83246 115.756 61.668251
128.88727 115.58795 61.731709
130.9579 115.638 61.653164
132.93253 115.48142 61.723106
134.56126 115.64307 61.594246
137.38496 115.46442 61.659344
139.04268 115.27148 61.767578
141.40056 115.61327 61.516205
142.95468 115.25896 61.701378
144.86731 115.27766 61.659431
146.78291 115.19749 61.687412
149.19637 115.55575 61.429962
151.21709 115.33595 61.523678
152.92824 115.04769 61.681194
154.90779 115.31346 61.481182
156.59106 115.28819 61.471497
158.84836 115.28757 61.414295
161.1283 115.08041 61.545078
162.73717 115.22934 61.423271
165.21933 115.23879 61.382812
167.02043 115.20593 61.358891
168.80579 115.13965 61.419456
171.04475 115.1974 61.332737
173.1106 115.04587 61.367756
175.05312 115.05801 61.341232
177.10332 115.06529 61.336609
179.35493 114.84145 61.460308
180.82487 115.03763 61.288738
182.69202 115.07921 61.242298
185.04353 114.85654 61.353237
187.3396 114.89355 61.288555
189.23203 115.03706 61.141285
191.09146 114.95451 61.201202
192.91046 115.58295 60.698433
194.89851 114.98768 61.120491
196.98192 115.00956 61.088379
198.69749 114.62778 61.336018
200.83278 115.32652 60.768982
203.12103 114.88227 61.066608
205.12123 114.70979 61.177906
207.11127 114.83371 61.014114
208.80684 114.93846 60.921154
210.8013 114.65714 61.12674
212.89244 114.64169 61.083179
215.248 114.90827 60.845421
217.19696 114.9244 60.816422
218.95972 115.17375 60.563095
220.85783 115.05461 60.67382
222.86993 114.7462 60.815998
225.10707 115.08514 60.510651
226.95172 114.59576 60.882133
229.09978 114.57047 60.880116
230.8822 115.23737 60.306454
233.03624 114.8364 60.570816
234.77089 114.62756 60.7523
237.36954 114.61778 60.717125
238.92416 114.88036 60.467968
240.86295 115.01125 60.306805
242.49515 114.52749 60.671703
245.21744 114.5536 60.606724
247.03099 114.4948 60.643124
248.77393 114.53003 60.591213
251.13522 114.44957 60.640251
253.59647 114.52477 60.516449
255.14278 114.64099 60.376736
257.28436 114.36706 60.5947
259.08502 114.39911 60.558224
261.26169 114.32135 60.586487
263.1312 114.61504 60.246552
264.87589 114.22552 60.637959
267.09824 114.05473 60.79192
269.14905 114.44234 60.327049
270.70154 114.39754 60.345398
273.57663 114.32314 60.369244
275.04138 114.32625 60.3424
277.24521 114.37189 60.261051
280.82828 114.44777 60.127098
283.23569 114.2142 60.344685
285.19406 114.37158 60.132565
286.89288 114.16392 60.345104
288.32257 114.21834 60.250885
291.12006 114.21061 60.214325
293.88409 114.25983 60.103516
294.98331 114.15119 60.218563
298.98737 114.12008 60.181881
300.52713 114.12698 60.152664
302.8244 114.10291 60.144245
304.46286 114.0432 60.202976
307.1405 114.08889 60.094337
308.74213 114.0491 60.125214
310.49005 114.03455 60.117683
314.99548 114.0061 60.085316
546.6405 114.68095 61.210377
75.033379 117.70454 61.979115
77.481384 117.56885 61.951321
78.768173 117.56688 61.931671
81.247108 117.24785 61.930489
83.244919 117.05197 61.932976
85.138283 117.45724 61.848633
87.45108 117.48615 61.804024
88.801468 117.27935 61.822128
91.523582 116.92455 61.832981
93.144463 117.14675 61.773716
94.991257 117.04738 61.761871
96.782509 116.84514 61.781086
98.766777 116.77656 61.780598
100.84215 117.16667 61.642872
102.68779 116.94373 61.683697
104.99996 117.28571 61.539215
107.08818 116.86074 61.636742
109.21187 117.0156 61.549999
110.72961 116.71268 61.579418
113.03874 117.07723 61.467957
115.17465 117.11832 61.41843
116.90154 117.20101 61.369064
118.9514 117.05681 61.383701
121.08569 117.04469 61.360489
123.34031 116.79922 61.383259
124.99454 116.94832 61.307751
127.26408 117.11871 61.217121
129.05466 117.27976 61.169312
131.15404 117.10674 61.174473
132.96191 116.8294 61.212402
135.28699 116.77777 61.148705
137.11368 117.34557 61.022697
138.97641 116.94567 61.064331
141.27426 116.75258 61.077419
143.09584 117.03678 60.986973
144.82687 116.65344 61.059326
146.62457 116.73035 61.002583
149.03424 116.99667 60.902649
151.07863 116.82427 60.897694
153.05672 117.11975 60.81498
154.81009 117.11312 60.788174
156.79071 116.71522 60.837902
159.33171 116.97255 60.724678
161.23828 117.06233 60.693703
162.17374 117.23208 60.608547
165.14999 116.81576 60.66061
167.23792 116.8091 60.647938
168.93974 116.70995 60.644295
171.21129 116.99596 60.530087
172.98825 116.97826 60.521091
174.99002 117.26355 60.441292
177.22762 117.08225 60.440784
178.75629 117.27241 60.367649
181.07449 116.7442 60.415508
182.71619 117.00608 60.349812
184.85329 116.80801 60.371326
186.93376 116.73761 60.330074
189.00534 116.91016 60.267746
190.97815 116.79313 60.268421
193.12611 117.34183 60.159256
195.16997 117.02364 60.14278
197.20403 116.52686 60.234516
198.97557 116.55892 60.183289
200.71205 116.47611 60.177662
203.32762 116.48356 60.127796
204.07509 116.56549 60.100021
207.13768 116.28052 60.140553
208.32851 116.16753 60.152172
210.55188 116.41937 60.02438
213.39534 116.11532 60.094429
215.09174 116.16563 60.043472
217.37708 116.1089 60.032906
218.89674 116.09238 60.015991
546.63245 117.05503 60.713345
73.547729 118.19666 61.994537
77.087997 118.40744 61.95562
78.987831 118.54958 61.939129
80.766533 118.44731 61.900356
82.915955 118.42297 61.862549
84.915161 118.67774 61.867687
86.992981 118.73288 61.843807
88.8022 118.58751 61.797184
91.079384 118.94906 61.817188
92.908623 118.87966 61.772545
95.155441 118.99715 61.759983
96.825768 119.39531 61.819572
99.015625 119.16357 61.750252
101.41373 119.00577 61.686615
102.86732 118.63756 61.577702
105.00024 118.85823 61.595203
106.78393 118.83334 61.546757
108.82861 119.37986 61.633648
110.90704 119.1228 61.551231
113.40927 118.91839 61.468399
115.0077 119.04734 61.435398
116.68363 118.81544 61.392876
118.92434 119.04156 61.402996
120.99748 119.05338 61.38253
122.98444 119.30237 61.384308
125.21909 118.90697 61.268475
127.01643 118.80224 61.208523
129.29195 119.09402 61.239056
131.27852 118.97579 61.175671
132.98807 118.78589 61.099773
134.80064 118.94859 61.103172
136.95509 118.88691 61.061787
138.79939 119.43113 61.163078
140.94638 118.95688 61.015129
143.34053 118.74004 60.960308
144.82417 118.72146 60.931934
147.46953 118.87681 60.889584
149.05019 119.23701 60.947266
151.18684 119.30305 60.920185
153.14844 119.24741 60.881607
155.0746 119.07042 60.82848
157.01698 118.97724 60.788818
158.63075 119.15095 60.777546
161.23163 119.00082 60.707588
163.08073 119.11847 60.708679
164.79994 119.31901 60.722698
167.0883 118.92007 60.590664
169.35197 118.77755 60.527538
171.10254 119.13388 60.582973
172.47549 118.84624 60.505157
175.14281 119.01844 60.477776
177.02104 119.08006 60.492283
178.5686 118.99138 60.395882
181.3412 119.40739 60.476093
182.95866 119.04883 60.3554
185.15677 118.4471 60.219326
187.28314 118.81986 60.255524
188.74275 119.37609 60.350426
191.28549 118.80867 60.164371
192.77986 119.1298 60.214336
194.98367 119.26598 60.215614
197.30107 119.12 60.14566
198.92802 119.65133 60.25259
201.4299 119.55753 60.165993
203.20059 119.58434 60.156048
204.32545 119.394 60.075256
207.23735 119.4613 60.046108
209.38452 119.64117 60.07188
211.55412 119.77732 60.074188
213.42915 119.88605 60.094517
214.99617 119.90293 60.076996
216.7178 119.82764 60.013988
546.64246 119.26394 61.332054
105.81516 120.1664 61.968899
107.06827 120.16966 61.950119
109.15072 120.25159 61.954578
110.85544 120.28589 61.942963
113.16183 120.07384 61.806694
114.93295 120.25544 61.86269
117.1227 120.38853 61.895489
118.70018 120.34698 61.848675
121.39939 120.25661 61.758465
123.15047 120.47753 61.844208
125.143 120.28312 61.725697
126.62471 120.36159 61.739769
128.54402 120.28237 61.663982
130.65816 120.63336 61.815346
133.12677 120.41798 61.677082
134.26295 120.4194 61.630444
137.28049 120.84887 61.858971
139.27046 120.50956 61.623463
141.11095 120.37545 61.50631
143.38367 120.57891 61.600952
145.39937 120.64028 61.593472
147.07838 120.54514 61.510509
148.93132 120.72696 61.595505
151.46947 120.55768 61.462582
152.82823 120.74012 61.563847
154.93929 121.022 61.698067
156.98657 120.51871 61.369007
159.3428 120.95837 61.586864
161.20268 120.65773 61.345612
163.16852 120.7596 61.409691
165.09656 120.84045 61.464787
167.3743 120.64783 61.258511
168.92 120.54281 61.161427
171.31404 121.12305 61.519062
172.74097 120.81908 61.271477
175.24036 120.88947 61.309208
177.7397 121.20349 61.514809
178.98709 120.9138 61.284409
181.12877 120.86544 61.198086
183.00897 121.09229 61.361618
185.07468 120.80929 61.07859
186.82257 121.05667 61.256527
189.21057 120.97526 61.116962
191.04335 120.98369 61.143532
193.05728 121.06007 61.185314
195.17648 121.29095 61.317986
196.93488 121.11778 61.160786
199.12584 121.02226 61.088928
201.05409 120.9161 60.979126
202.82214 120.98103 60.926804
205.14 121.32417 61.244194
207.11993 121.03671 60.929592
208.83902 120.93182 60.814781
211.17638 121.03665 60.834557
213.40018 121.22123 60.984932
214.97218 120.99427 60.736996
216.95386 120.99124 60.719955
218.56282 120.92163 60.70546
221.2338 121.29543 60.892284
222.75343 120.9972 60.66555
225.20312 121.07271 60.627865
227.15747 121.02637 60.594685
228.92116 121.30421 60.765572
231.11459 121.63535 61.017342
233.23259 121.25185 60.651085
235.22041 121.02245 60.42239
236.92131 121.03042 60.428936
238.96654 121.21213 60.498955
241.1855 121.55093 60.795647
242.97577 121.41584 60.638603
244.91739 121.51738 60.693291
246.93127 121.21042 60.384624
249.01489 121.61717 60.732452
250.87471 121.33579 60.443043
253.73636 121.57448 60.596222
254.28499 121.30967 60.35017
256.7413 121.53766 60.50481
259.35208 121.47772 60.416702
260.6647 121.47282 60.395679
262.91101 121.43766 60.309147
264.5556 121.55222 60.390747
267.23932 121.69966 60.518097
269.08044 121.65508 60.438416
270.94287 121.76851 60.515514
272.86835 121.67224 60.389648
274.37366 121.60433 60.294827
277.14853 121.67116 60.310295
279.4245 121.73529 60.349346
281.0126 121.56623 60.141479
282.8855 121.89948 60.471741
285.30688 121.59253 60.094833
287.87289 121.74139 60.202141
289.61542 121.96736 60.458626
290.6517 121.79922 60.234982
292.54172 121.74805 60.137459
294.94363 121.82422 60.190617
299.78311 121.86317 60.152859
300.47961 121.81392 60.070412
303.1991 121.8241 60.036537
304.47202 121.91666 60.1479
306.17734 121.86153 60.039124
308.93613 121.92409 60.083775
311.23148 121.95205 60.086517
313.89954 121.94429 60.032223
315.05118 121.93826 60.004925
546.64075 121.04259 61.227951
198.99284 122.95122 61.188648
205.05086 122.82886 61.202011
207.10425 122.94254 61.013992
208.98636 122.83418 61.145653
221.06937 122.83022 60.968914
222.94995 122.95267 61.126808
