# .PCD v0.7 - Point Cloud Data file format
VERSION 0.7
FIELDS x y z
SIZE 4 4 4
TYPE F F F
COUNT 1 1 1
WIDTH 1611
HEIGHT 1
VIEWPOINT 0 0 0 1 0 0 0
POINTS 1611
DATA ascii
468.19281 115.3163 64.793991
470.7749 115.37233 64.785172
471.58743 115.03545 64.547745
472.38159 115.11139 64.587906
473.04477 115.14046 64.597397
474.60089 115.27631 64.664719
475.7291 115.49003 64.779762
476.53134 115.54739 64.79454
477.66147 115.53668 64.766937
478.3562 115.49512 64.74659
479.45297 115.63101 64.792534
480.30728 115.50029 64.71373
481.70374 115.66698 64.782082
482.31906 115.51005 64.663887
483.6676 115.96523 64.890999
484.43066 115.31085 64.530167
485.68799 115.39254 64.542458
486.21259 115.91354 64.825233
487.45959 115.94315 64.818634
488.3244 115.5882 64.612595
489.3812 115.25647 64.409973
490.98737 115.21564 64.356056
491.51941 115.63954 64.601456
492.38437 115.51239 64.512672
493.30988 115.71521 64.615311
494.4035 115.61635 64.538513
495.09857 115.01901 64.151001
496.3443 115.6292 64.505524
497.75107 115.90292 64.631432
498.4043 115.8031 64.573334
500.68652 115.34069 64.271095
501.44788 115.22581 64.190865
503.3493 115.52667 64.337692
504.57678 115.37292 64.230133
505.23721 115.11244 64.050301
506.8092 115.76785 64.420166
507.50912 115.60681 64.301674
508.6835 115.73447 64.372475
509.44101 115.49216 64.234573
510.6254 115.4416 64.180626
511.56448 115.46741 64.175659
513.85632 115.95087 64.39019
517.43134 115.6316 64.172081
518.18457 115.59833 64.154922
519.58875 115.67496 64.165787
520.3501 115.72087 64.176636
521.58093 115.71066 64.150482
522.43579 115.6731 64.119064
523.49487 115.88184 64.200233
525.38367 115.69567 64.082489
526.72076 115.92807 64.168991
528.80231 115.8331 64.09063
531.37732 115.76254 64.015579
532.68665 115.93261 64.073463
533.93384 115.90596 64.040619
535.12408 115.94064 64.037315
536.96423 115.9918 64.031052
537.70538 115.963 64.005493
40.275314 116.62875 64.921127
124.21568 116.33289 64.227356
127.21568 116.62667 64.47879
248.69534 116.58741 64.301147
251.89624 116.32033 64.469208
416.33551 116.42078 64.598183
419.33554 116.84341 64.440041
485.70676 116.19822 64.961006
488.51108 116.40599 64.990158
490.40515 116.23804 64.900284
492.62186 116.11167 64.812737
493.44128 116.64883 64.978088
494.47662 116.43525 64.898407
495.3652 116.36246 64.850342
497.30582 116.0232 64.694809
498.45346 116.2051 64.757324
499.4823 116.83688 64.929665
500.52933 116.4295 64.78537
501.51816 116.45942 64.794777
502.03998 116.57133 64.816666
503.73447 116.31462 64.698593
504.0943 116.72817 64.825096
505.5896 116.66025 64.78244
507.28906 116.33573 64.660263
508.68076 116.787 64.765839
509.51633 116.37634 64.628441
510.41125 116.522 64.648804
512.48303 116.50263 64.627434
514.29773 116.16676 64.48365
516.28156 116.42182 64.527344
517.51154 116.45757 64.531326
518.73389 116.27917 64.44545
519.8736 116.69994 64.559418
520.68073 116.70362 64.547211
521.65253 116.20721 64.382133
522.42145 116.23866 64.381012
523.60406 116.49264 64.440918
524.44556 116.35545 64.379929
525.10773 116.06853 64.260902
526.42664 116.42185 64.367973
528.46875 116.29868 64.285248
529.57227 116.65828 64.38903
530.40753 116.42371 64.300682
531.39722 116.55548 64.332222
532.39209 116.55962 64.306351
533.17371 116.54539 64.300453
534.41248 116.54388 64.279785
535.99463 116.39944 64.215202
537.6131 116.41048 64.174019
538.78564 116.14728 64.073753
539.34009 116.57146 64.194077
540.70862 116.91457 64.276131
541.86517 116.92731 64.260628
542.74951 116.88972 64.236092
544.59723 116.38981 64.070366
545.42316 116.34941 64.047562
40.266483 117.33319 64.37606
124.21568 117.43726 64.434967
127.21568 117.40957 64.554039
248.8748 117.95217 64.866478
251.91687 117.75589 64.534256
416.33551 117.43185 64.559303
419.33554 117.55563 64.460869
500.51483 117.17334 64.990128
502.47958 117.17063 64.957092
503.42169 117.37939 64.965721
505.99127 117.41876 64.927139
506.11823 117.1318 64.893867
507.1781 117.42136 64.907967
508.43423 117.50221 64.894112
509.88303 117.37647 64.85685
510.42792 117.5366 64.861809
511.52792 117.32699 64.826744
512.57196 117.23205 64.802505
513.56378 117.68992 64.8255
514.9931 117.37006 64.775681
515.44714 117.36221 64.76403
516.49854 117.54301 64.76619
518.38715 117.71038 64.749962
519.51178 117.54181 64.716812
520.82727 117.21799 64.665894
521.14166 117.38747 64.669746
522.69598 117.67587 64.676476
525.1908 117.13113 64.582535
526.34247 117.395 64.588509
527.33093 117.46741 64.582047
528.70496 117.70648 64.580887
529.23499 117.34091 64.531754
530.0871 117.68394 64.556313
531.8042 117.84752 64.542549
532.88208 117.14298 64.461693
533.70306 117.26937 64.460091
534.46191 117.85126 64.499413
535.58429 117.7432 64.471603
537.47687 117.63164 64.430893
538.45386 117.47526 64.397514
539.97327 117.38713 64.368675
540.6665 117.38882 64.357491
541.5387 117.42151 64.343048
542.00861 117.15973 64.315491
543.42078 117.73083 64.342377
544.76758 117.28963 64.281746
545.53601 117.62939 64.298912
546.16833 117.73792 64.298065
40.264938 118.58048 64.280846
124.21568 118.5083 64.492462
127.21568 118.352 64.699692
248.81123 118.80211 64.666214
251.87354 118.65448 64.397644
416.33551 118.34925 64.430023
419.33554 118.19623 64.949051
502.00504 118.64632 64.986633
504.423 118.67159 64.936531
505.39175 118.30762 64.958092
506.13391 118.23146 64.955399
507.94177 118.34833 64.915627
508.56967 118.39081 64.901642
509.63586 118.43255 64.880562
511.42435 118.56539 64.835159
512.76355 118.34072 64.83744
513.61652 118.58108 64.797112
514.55908 118.51349 64.783852
515.47217 118.53755 64.775925
518.47791 118.59435 64.719666
519.04523 118.75967 64.698067
520.3501 118.7503 64.675529
521.42639 118.78845 64.652252
522.6687 118.79816 64.634933
523.5929 118.6235 64.629372
524.45898 118.12193 64.664261
525.54163 118.41073 64.622223
526.54132 118.47909 64.599709
527.46771 118.4649 64.584969
528.38702 118.62943 64.550079
529.81592 118.86616 64.501976
530.4574 118.70198 64.516487
531.6911 118.19294 64.540443
532.62274 118.9217 64.452278
533.52722 118.36971 64.495361
535.51917 118.68148 64.429665
537.5813 118.20741 64.443268
538.32013 118.1121 64.439529
539.92236 118.96922 64.320137
540.66602 118.30399 64.384369
541.73077 118.57436 64.343307
542.50964 118.32436 64.352448
543.47015 118.44242 64.326408
544.77216 118.48969 64.300652
545.44409 118.50478 64.288422
546.40015 118.5034 64.129715
40.262558 119.52303 64.133705
124.21568 119.74469 64.47049
127.21568 119.32291 64.260269
248.67856 119.48529 64.248291
251.84703 119.14005 64.314224
252.03249 119.24193 64.898407
416.33554 119.69106 64.331963
419.33554 119.57608 64.936966
479.79074 119.94437 64.996613
481.41733 119.99553 64.946129
485.18622 119.97482 64.894104
486.22424 119.89896 64.912361
487.24405 119.82922 64.922943
489.53223 119.79035 64.894737
490.89426 119.47217 64.987328
494.41623 119.59322 64.889328
495.28986 119.7707 64.818611
496.79987 119.31644 64.932457
497.44675 119.51377 64.868996
498.69565 119.41019 64.876244
499.76218 119.99894 64.644279
501.70917 119.71806 64.727959
502.19458 119.58469 64.771385
503.3064 119.5562 64.76178
505.45627 119.19492 64.823425
506.25226 119.46361 64.738403
508.85611 119.96334 64.512039
509.66412 119.85364 64.54998
510.65723 119.42084 64.669266
512.39355 119.26814 64.690331
513.76013 119.35585 64.64447
514.47461 119.05668 64.712959
515.42957 119.54206 64.565376
516.9834 119.77773 64.464203
517.70892 119.07191 64.655975
518.40497 119.63435 64.490021
519.47919 119.39885 64.527122
520.54572 119.26904 64.55674
521.4256 119.72173 64.403053
522.66687 119.57755 64.439369
523.46545 119.42206 64.465599
524.46503 119.41677 64.452797
525.21191 119.63889 64.38131
526.51489 119.04477 64.519196
527.58868 119.4882 64.36412
528.51697 119.6597 64.310806
529.56824 119.65698 64.297684
530.3302 119.80434 64.232193
531.49512 119.61253 64.266602
532.94739 119.13062 64.390976
533.7395 119.39197 64.307983
534.70496 119.66351 64.201241
535.16364 119.48193 64.254509
536.45355 119.38934 64.264297
537.7594 119.45625 64.224998
538.38898 119.37215 64.237244
540.62201 119.55318 64.152206
541.40332 119.41844 64.175529
542.88428 119.38347 64.160675
543.04504 119.28438 64.184608
544.09546 119.76318 64.028603
546.34106 119.3205 64.12101
40.271572 120.12639 64.690033
127.21568 120.74606 64.99453
248.74744 120.57779 64.46524
252.03621 120.81471 64.91011
416.33554 120.43826 64.432793
419.33554 120.33398 64.316032
448.11121 120.90694 64.97274
449.9697 120.86582 64.971092
450.36389 120.98985 64.875244
452.85733 120.75763 64.998695
454.60208 120.77864 64.956238
455.61859 120.69803 64.991928
458.51736 120.73532 64.920799
459.72485 120.91995 64.773346
460.32144 120.9384 64.750641
461.49628 120.63829 64.934761
462.79111 120.79417 64.811188
463.86621 120.68496 64.866615
464.39526 120.64951 64.880272
466.63284 120.56065 64.901001
467.31479 120.68291 64.81205
468.34036 120.73495 64.761726
469.73157 120.30202 64.992516
471.0462 120.92941 64.581223
472.44122 120.69386 64.71875
474.37976 120.44688 64.826439
475.36401 120.61539 64.71772
476.73895 120.73129 64.624947
477.76144 120.68978 64.631706
478.42676 120.36047 64.810486
480.53827 120.18925 64.869858
482.6167 120.62474 64.575508
483.40671 120.33049 64.753929
484.68668 120.65923 64.5355
486.29321 120.60757 64.533257
487.0979 120.50292 64.606194
488.42218 120.33846 64.667595
489.34024 120.46951 64.571754
490.70325 120.59122 64.468742
492.9437 120.35033 64.591263
493.90524 120.89333 64.231934
494.95456 120.83418 64.256165
495.56601 120.18125 64.62793
496.34473 120.57008 64.386696
497.61792 120.45862 64.450691
498.31262 120.53902 64.401482
499.54578 120.58321 64.329964
501.56409 120.53668 64.339836
502.30481 120.40981 64.384438
503.36761 120.51538 64.328278
504.36057 120.45876 64.346558
505.62201 120.44435 64.333115
506.36713 120.75845 64.122208
507.90979 120.17265 64.429909
509.70102 120.75753 64.068222
510.9281 120.64703 64.123611
511.61353 120.47192 64.219185
513.33026 120.4111 64.203583
515.63141 120.24149 64.271423
516.29132 120.59413 64.073944
517.22498 120.13876 64.293251
518.32782 120.20383 64.24485
519.04761 120.22995 64.220886
521.59613 120.3687 64.114471
522.66614 120.38824 64.086357
523.50549 120.51078 64.011276
524.42633 120.26633 64.115875
525.6228 120.11069 64.168884
526.33838 120.04831 64.186264
527.20929 120.28855 64.059967
528.8811 120.19952 64.074127
532.70203 120.14897 64.035164
534.94873 120.04433 64.047195
40.270737 121.51224 64.638756
42.87571 121.84342 64.279457
44.926857 121.8969 64.326073
45.358971 121.84229 64.237587
46.590141 121.85983 64.243011
49.889404 121.97947 64.360138
51.658886 121.79631 64.084373
55.603821 121.87063 64.118111
56.86961 121.93107 64.177902
57.257351 121.89228 64.116211
59.0033 121.95162 64.172691
61.39357 121.86829 64.014938
64.74736 121.97755 64.116661
65.523819 121.99759 64.13269
67.047249 121.97858 64.080864
71.796997 121.99071 64.02121
124.21568 121.47018 64.483749
127.21568 121.79172 64.510262
248.69139 121.11438 64.288727
251.91141 121.29143 64.516975
381.96771 121.98154 64.978989
384.60168 121.98003 64.938461
395.42734 121.95657 64.796562
396.10626 121.9332 64.818947
399.54886 121.99859 64.669769
402.04138 121.84299 64.851624
407.63882 121.84903 64.752312
408.48071 121.67775 64.918015
409.20972 121.89751 64.657608
410.33276 121.78 64.785744
411.90802 121.55648 64.98378
412.56036 121.69617 64.833504
413.73096 121.79596 64.699051
414.36429 121.90363 64.565353
416.33551 121.12008 64.329987
419.48663 121.60326 64.703156
420.12497 121.70557 64.68679
421.02817 121.56399 64.828499
422.18558 121.69925 64.64444
423.54596 121.73936 64.612305
424.41107 121.64738 64.68766
425.52448 121.74988 64.569733
426.33295 121.64291 64.663612
428.46255 121.74365 64.506508
429.65897 121.40921 64.843445
430.19843 121.34815 64.89579
431.23083 121.69441 64.515762
432.20645 121.49637 64.715012
433.30133 121.51469 64.67614
434.06421 121.75242 64.408684
435.38989 121.62673 64.533043
436.68713 121.54084 64.597931
437.79333 121.375 64.742691
438.37769 121.46008 64.648125
439.61249 121.57168 64.494217
440.75601 121.42814 64.64473
441.47403 121.25723 64.793976
444.49228 121.31229 64.694725
445.74072 121.42342 64.56823
446.48138 121.72674 64.253326
447.70285 121.51968 64.431343
448.68375 121.71024 64.234131
449.54877 121.43071 64.49617
450.84781 121.60688 64.302338
451.43781 121.51703 64.382751
452.61572 121.60689 64.268753
453.62119 121.32302 64.541397
455.5358 121.46149 64.368286
456.17993 121.41628 64.403557
457.44833 121.39679 64.405609
458.57288 121.27085 64.493149
460.49673 121.30263 64.438202
461.64624 121.09262 64.613571
462.41452 121.5409 64.181023
463.09991 121.19384 64.512352
465.21786 121.03214 64.602119
466.53937 121.00433 64.602043
467.73508 121.1835 64.43399
468.00272 121.30826 64.323158
469.33746 121.42639 64.183365
470.60562 121.19574 64.377075
471.38184 121.15506 64.404984
472.39334 121.21643 64.319519
474.52289 121.15519 64.34996
475.51114 121.17748 64.317009
477.37421 121.19926 64.276909
478.70462 121.3087 64.144745
479.69482 121.36185 64.080109
483.46808 121.19037 64.184738
484.7348 121.18465 64.166077
486.56357 121.11819 64.190224
487.44659 121.20477 64.109482
489.9101 121.26609 64.010361
490.50586 121.24831 64.018494
494.17477 121.06092 64.110161
496.15167 121.07156 64.070061
497.3714 121.11938 64.014206
40.278984 122.16946 64.815346
41.220119 122.20145 64.817657
43.780907 122.1306 64.67498
46.236603 122.17332 64.696205
50.753883 122.18347 64.637512
51.446659 122.10807 64.518593
52.350754 122.26274 64.739037
54.961082 122.27795 64.704285
56.197689 122.07288 64.391342
57.303223 122.16148 64.499985
58.325817 122.14052 64.453461
59.072365 122.31916 64.696533
60.791702 122.23966 64.55513
61.479729 122.21175 64.50412
62.700363 122.19565 64.461342
64.534637 122.17433 64.401161
65.821495 122.17677 64.383804
67.325272 122.26091 64.545807
69.353615 122.42683 64.75515
70.668419 122.24743 64.406197
72.644379 122.25607 64.413109
73.566666 122.33038 64.533676
75.341232 122.39016 64.577362
76.506691 122.27496 64.372688
77.151825 122.36856 64.501694
78.66629 122.3629 64.481049
79.778488 122.29466 64.344147
80.534241 122.46645 64.65683
81.508278 122.30056 64.353699
82.325432 122.50774 64.716393
83.633087 122.32888 64.372528
84.552177 122.36703 64.413742
85.338715 122.51392 64.680809
86.136063 122.52364 64.688744
87.370667 122.45558 64.529083
88.495537 122.51083 64.623047
89.489792 122.18955 64.01857
90.482132 122.48139 64.527702
91.555138 122.51447 64.610527
92.799286 122.62144 64.79055
94.386658 122.43838 64.372177
95.48851 122.31615 64.102203
96.387482 122.58064 64.644882
97.665016 122.37033 64.173103
98.749367 122.59888 64.64576
99.33345 122.65725 64.781189
100.09065 122.34322 64.075653
104.17352 122.64328 64.653091
105.47339 122.60419 64.552719
107.76733 122.50986 64.308701
108.27143 122.55259 64.419731
109.94584 122.52361 64.302895
110.49339 122.62097 64.537758
111.36228 122.58219 64.435028
112.02118 122.74737 64.826805
113.51443 122.61735 64.473495
114.49445 122.58801 64.367317
115.48168 122.61182 64.414276
117.43695 122.67165 64.531586
118.58729 122.72615 64.678772
120.43695 122.72579 64.650307
121.47456 122.56947 64.214432
122.64832 122.80383 64.86541
123.52853 122.80878 64.869568
124.21568 122.40753 64.774574
127.49552 122.45979 64.52626
128.71759 122.69597 64.43483
129.36598 122.62178 64.198776
130.53197 122.74139 64.55394
131.53424 122.78348 64.683044
132.38272 122.80659 64.717957
134.69354 122.7936 64.68277
136.55807 122.73366 64.378067
139.42448 122.66461 64.127686
140.50198 122.85722 64.77536
141.70377 122.88464 64.858261
142.77362 122.87011 64.786674
143.27751 122.81418 64.569756
144.1265 122.70415 64.159546
145.64575 122.8586 64.703812
146.11337 122.69956 64.096016
147.65981 122.84919 64.62944
148.47942 122.76925 64.31778
149.84537 122.71132 64.079414
150.32808 122.79377 64.379349
151.34584 122.77924 64.308647
152.59917 122.86081 64.625618
154.66309 122.81749 64.415932
155.75049 122.82549 64.414886
158.44064 122.85341 64.490051
159.39905 122.85844 64.473755
160.44737 122.90032 64.669678
161.29088 122.8202 64.300362
162.24631 122.88941 64.606003
163.49823 122.94738 64.919029
164.5816 122.85062 64.412445
165.25485 122.82803 64.265343
167.22583 122.95231 64.914902
168.58566 122.82845 64.212944
169.44792 122.87482 64.413307
170.5576 122.86469 64.403389
171.63306 122.84205 64.214333
173.62761 122.91764 64.536583
174.51994 122.87503 64.290672
175.8521 122.8975 64.432259
176.24138 122.9544 64.792786
177.44104 122.88528 64.408592
178.68378 122.82591 64.039886
179.65543 122.92232 64.483688
180.82318 122.93246 64.467682
181.58609 122.88731 64.222023
183.548 122.95 64.624062
184.51433 122.95657 64.68354
185.37746 122.89429 64.1866
187.69632 122.96149 64.688156
188.69296 122.96465 64.708206
189.28096 122.92169 64.308601
190.39178 122.92993 64.339684
191.88037 122.93749 64.346138
192.07797 122.94701 64.451675
193.53345 122.97009 64.691986
195.47038 122.92369 64.213913
197.54839 122.93224 64.2313
199.19629 122.95784 64.46019
200.47559 122.9594 64.457161
201.35178 122.96314 64.508507
202.55536 122.95297 64.350174
203.71439 122.97669 64.648865
204.40376 122.97191 64.592819
206.32536 122.94847 64.237534
208.30569 122.96564 64.401672
210.51917 122.95812 64.279953
212.41554 122.96042 64.275421
214.47433 122.97725 64.954742
215.18338 122.97302 64.991531
217.5038 122.97522 64.362221
218.56746 122.97996 64.654907
221.09995 122.95862 64.476875
222.45311 122.96507 64.166008
223.67201 122.97156 64.596733
224.87766 122.97931 64.289421
226.70947 122.95702 64.987793
228.4149 122.97973 64.529655
229.19365 122.97256 64.142487
233.47696 122.9722 64.704498
235.40796 122.97871 64.542755
236.43428 122.97717 64.381432
237.50107 122.96486 64.723175
242.60303 122.96757 64.495193
244.5061 122.94905 64.790451
245.47678 122.95568 64.698929
246.55234 122.96071 64.623993
248.48322 122.78511 64.723228
252.45183 122.78556 64.578827
254.32191 122.96444 64.455544
256.50952 122.94592 64.52446
257.59238 122.96436 64.403465
258.43524 122.93594 64.714622
259.51654 122.95567 64.471481
262.3739 122.92437 64.625366
263.57465 122.92514 64.640709
264.16351 122.9566 64.385666
265.37997 122.89532 64.84536
266.79938 122.93241 64.508911
267.29962 122.93675 64.56176
268.44019 122.94919 64.401108
269.44995 122.92567 64.523972
270.50702 122.91991 64.545029
271.39203 122.95467 64.290588
272.98148 122.95396 64.272919
273.24442 122.89079 64.657951
274.5238 122.90373 64.485703
275.51913 122.89966 64.657906
276.0495 122.89762 64.663879
277.4696 122.87456 64.652863
278.58551 122.91557 64.476372
279.69269 122.90755 64.493011
281.15405 122.94948 64.191772
282.13071 122.94907 64.180588
283.47549 122.88104 64.56498
284.62494 122.90663 64.349869
285.04459 122.94897 64.134499
286.79678 122.84826 64.673996
288.74835 122.80633 64.798874
291.46039 122.86295 64.525467
292.42999 122.82447 64.671501
293.92624 122.93097 64.196465
294.44601 122.83892 64.578079
295.18433 122.90831 64.313934
296.54623 122.83962 64.523239
299.78769 122.93566 64.047829
300.60049 122.75716 64.790375
301.4169 122.80899 64.583672
302.82245 122.76476 64.725998
303.43677 122.88275 64.260384
305.61905 122.78504 64.604988
306.30847 122.75405 64.686737
307.67853 122.762 64.657608
308.3475 122.8891 64.172363
309.46536 122.79163 64.518074
310.32101 122.7923 64.501724
312.62082 122.75144 64.616936
313.58218 122.86785 64.16687
314.23489 122.78387 64.469727
315.71881 122.89227 64.041107
316.40521 122.65219 64.848541
317.45834 122.59346 64.96151
318.73593 122.79002 64.373833
319.08624 122.81563 64.272606
320.6199 122.63358 64.822289
321.37613 122.71401 64.57093
322.59097 122.78093 64.320717
323.76093 122.78186 64.322906
325.2001 122.67205 64.634232
327.34119 122.69376 64.542213
328.52243 122.69109 64.509735
329.17249 122.62969 64.694016
330.4808 122.68376 64.556831
331.39731 122.65179 64.562897
332.48325 122.71738 64.348167
333.48312 122.50724 64.886803
334.55908 122.66 64.486473
335.83139 122.72562 64.337265
336.37018 122.67989 64.397095
337.20221 122.51916 64.80098
338.79578 122.66504 64.395676
339.56076 122.46431 64.880394
340.13251 122.49817 64.798523
341.33969 122.56349 64.619263
342.39194 122.64001 64.4216
343.16141 122.63947 64.446373
344.78598 122.70577 64.266228
345.47845 122.6331 64.420151
346.59329 122.62576 64.420166
347.49683 122.52459 64.622528
348.56708 122.60347 64.432388
349.54068 122.62319 64.361488
350.78674 122.61413 64.377075
351.78531 122.47448 64.660522
352.38654 122.37004 64.874779
353.39542 122.63357 64.293213
354.26419 122.28324 64.996933
355.87082 122.59618 64.333298
357.50455 122.39843 64.730972
359.5 122.52454 64.428131
360.35718 122.35279 64.758461
361.57385 122.53011 64.382614
362.42023 122.32056 64.774078
364.57886 122.66415 64.04641
365.44113 122.43111 64.531647
366.14465 122.36539 64.655823
367.29086 122.31598 64.686882
368.47913 122.4421 64.459488
369.52481 122.48483 64.350899
370.04669 122.63872 64.012367
371.39575 122.36533 64.568504
372.55768 122.36107 64.516876
373.5773 122.26444 64.710846
374.39001 122.3598 64.540222
375.64136 122.38033 64.411659
376.24203 122.2244 64.667351
377.45844 122.39714 64.407776
378.4826 122.45451 64.262337
379.33325 122.22968 64.663979
380.4657 122.40702 64.340508
381.3681 122.12988 64.776833
382.49545 122.34057 64.402931
384.43408 122.47143 64.138069
385.40891 122.46272 64.140945
386.03189 122.07381 64.781357
387.55087 122.03722 64.80899
389.71097 122.30959 64.347527
390.55139 122.25339 64.436691
391.62781 122.09263 64.663795
393.39584 122.05052 64.69529
394.91214 122.02355 64.709244
396.14423 122.34877 64.211418
397.87039 122.2356 64.358452
398.63284 122.23885 64.328278
399.25638 122.13034 64.486313
400.47913 122.20137 64.354446
401.63553 122.28391 64.215416
402.24628 122.03299 64.576935
403.83548 122.17031 64.35096
404.56815 122.26907 64.196922
405.37927 122.10202 64.427567
406.3913 122.22076 64.241562
407.30743 122.24574 64.191071
408.43719 122.1856 64.258652
412.39029 122.0827 64.341576
413.69287 122.27105 64.051437
419.35294 122.21233 64.04361
422.27225 122.1935 64.023193
424.91092 122.05557 64.177444
426.62216 122.089 64.101974
428.61981 122.07648 64.087502
434.50363 122.04784 64.033066
436.07269 122.03986 64.019051
439.46735 122.00847 64.008881
40.298904 113.71304 65.59301
41.766697 113.47337 65.414047
42.496925 113.45705 65.437248
43.520073 113.36324 65.626297
44.74353 113.51223 65.282494
45.45866 113.40321 65.538475
48.701942 113.27814 65.757576
49.485832 113.4116 65.429237
50.497097 113.38491 65.484695
51.298988 113.52881 65.140717
52.68771 113.3421 65.567215
54.284389 113.24897 65.776009
55.525585 113.4591 65.221748
56.365017 113.34885 65.502045
57.339367 113.42261 65.277458
58.704594 113.29738 65.580902
59.528767 113.27834 65.588074
60.602024 113.4165 65.230843
61.521004 113.42522 65.19725
63.482208 113.2711 65.575989
65.966713 113.18948 65.808777
66.360168 113.34723 65.341721
67.518501 113.20575 65.722893
68.473701 113.30714 65.337875
69.413826 113.42847 65.062408
72.230789 113.27259 65.441849
73.199051 113.29519 65.315826
74.72348 113.29591 65.274628
76.919464 113.14381 65.801743
77.6259 113.27793 65.289673
78.260841 113.19023 65.606743
79.830231 113.32056 65.125076
80.479652 113.26923 65.275932
81.551285 113.19997 65.523438
82.80027 113.14487 65.70253
83.455963 113.23641 65.350182
84.45314 113.1294 65.733459
85.167328 113.1828 65.522598
86.517296 113.21301 65.387947
87.075119 113.06874 65.973007
88.491615 113.07349 65.929787
89.406082 113.06961 65.925247
90.561104 113.19068 65.405769
91.63913 113.07542 65.822571
92.554245 113.16779 65.458954
94.620262 113.10673 65.653358
95.615868 113.16909 65.423492
96.323654 113.11514 65.626129
98.814522 113.16689 65.36087
99.414642 113.13214 65.569443
100.44632 113.09174 65.614899
101.22678 113.07137 65.713669
102.34227 113.14685 65.378502
103.3512 113.10455 65.618271
104.6661 113.06449 65.73658
105.16373 113.17934 65.211487
106.42217 113.13844 65.368202
107.952 113.05212 65.824753
109.93337 113.14619 65.257935
110.35245 113.05007 65.809258
111.45447 113.12827 65.350349
112.19082 113.12578 65.323708
113.33157 113.08496 65.527473
114.53229 113.09619 65.500259
115.74117 113.09691 65.39048
117.40259 113.05953 65.60836
118.65128 113.11156 65.292053
119.87848 113.1341 65.141937
121.41623 113.11307 65.195518
122.35075 113.06636 65.428558
123.2185 113.04998 65.601753
124.21568 113.10979 65.619576
127.21568 113.38404 65.482559
129.30554 113.05544 65.440842
130.95842 113.03761 65.617912
131.6754 113.02814 65.714462
132.37555 113.05572 65.454918
133.3533 113.06331 65.28524
134.56677 113.00242 65.961655
135.45761 113.0286 65.64782
136.1723 113.01184 65.840744
137.08415 113.01602 65.765388
138.74529 113.05695 65.270523
139.7438 113.04082 65.505501
140.69098 113.02335 65.626678
141.54959 113.0446 65.366341
142.30724 113.03189 65.499252
143.3999 113.01766 65.644272
144.48152 113.05104 65.24511
146.3942 113.04834 65.245056
147.17847 113.02443 65.505692
148.23427 113.0189 65.787727
149.6106 113.03128 65.387939
150.86768 113.02117 65.967239
151.37784 113.03662 65.418549
152.06682 113.0054 65.767548
154.56053 113.04401 65.162292
155.30353 113.03062 65.303154
156.48242 113.01239 65.553749
157.39522 113.01867 65.537148
158.70563 113.00651 65.523758
159.44569 113.01536 65.761826
160.47609 113.02422 65.409439
161.30162 113.01161 65.527893
162.11218 113.02997 65.88562
163.84059 113.00724 65.432205
164.33672 113.00176 65.527115
165.73244 113.04042 65.946396
167.46854 113.02464 65.619003
169.51987 113.01844 65.212166
170.57645 113.02785 65.501572
171.41507 113.00996 65.337418
172.54785 113.02476 65.209961
173.43755 113.03223 65.496834
174.45486 113.03489 65.741882
175.28183 113.00914 65.288704
176.60808 113.03313 65.573547
177.76387 113.04245 65.774719
178.65198 113.02824 65.594215
179.19382 113.0333 65.646942
180.34341 113.05329 65.856842
181.35532 113.02246 65.388588
182.85909 113.00275 65.17543
183.51758 113.02194 65.315262
184.46092 113.03653 65.451569
186.2543 113.05251 65.752045
187.84616 113.03162 65.487473
188.32938 113.0465 65.649864
189.69357 113.02544 65.386909
190.65752 113.05239 65.67939
192.48224 113.01583 65.231888
193.45312 113.03712 65.459686
194.39182 113.02069 65.256538
196.34334 113.02972 65.328186
197.36575 113.02808 65.292725
198.25549 113.0369 65.379257
199.5414 113.05097 65.519279
200.66754 113.07472 65.5886
203.54475 113.0666 65.633163
204.18491 113.06696 65.538971
205.61145 113.06529 65.584702
206.59729 113.10288 65.789574
207.74341 113.04474 65.315056
211.37546 113.07396 65.481949
212.12405 113.0906 65.635368
213.62503 113.09226 65.534019
215.5145 113.09436 65.552231
216.65576 113.07509 65.445694
217.39859 113.13176 65.723824
218.65085 113.13793 65.726585
219.61046 113.12383 65.651176
222.58214 113.09597 65.477089
223.53117 113.08764 65.361214
224.86317 113.14224 65.636131
225.71529 113.1268 65.517174
226.56233 113.12407 65.461601
227.50485 113.09567 65.328079
228.1183 113.14819 65.611481
229.16385 113.16704 65.664886
230.44562 113.1479 65.572723
231.30142 113.13098 65.423492
232.77899 113.25201 65.923462
233.62184 113.18302 65.633904
234.86136 113.17623 65.606903
235.62297 113.15826 65.518974
236.29787 113.27292 65.944496
237.36359 113.07584 65.190758
238.42696 113.09706 65.253609
239.20663 113.25552 65.832451
240.36038 113.19129 65.57399
243.48531 113.15493 65.387672
244.62752 113.13174 65.259689
246.48393 113.18109 65.436699
247.59607 113.2716 65.73922
248.38481 113.14161 65.258545
252.4584 113.43143 65.442894
253.25911 113.26741 65.649139
255.35648 113.27888 65.657951
256.30206 113.22997 65.460106
257.5545 113.32409 65.713768
258.90457 113.24531 65.475166
259.4032 113.32211 65.674286
260.51187 113.20353 65.287827
261.42896 113.27921 65.524376
262.76367 113.20063 65.245872
263.63681 113.30019 65.511017
264.63077 113.40683 65.818085
265.27332 113.42695 65.85083
266.28232 113.15087 65.003128
267.49036 113.41927 65.798431
268.69763 113.27155 65.363037
269.65784 113.3275 65.50602
270.52014 113.356 65.586311
272.3558 113.32377 65.482635
274.27414 113.31583 65.397629
275.40701 113.36111 65.519569
276.63919 113.39916 65.607086
277.1994 113.48217 65.776016
278.61127 113.28115 65.289642
279.00162 113.37978 65.527237
280.38126 113.38776 65.49189
281.38092 113.28757 65.251366
282.42737 113.27883 65.219147
284.78357 113.40947 65.497215
285.19461 113.29949 65.229942
288.28854 113.41184 65.426384
289.83099 113.41638 65.430267
290.6647 113.40818 65.387779
291.86795 113.61959 65.833099
293.56104 113.51732 65.586296
294.33878 113.30303 65.095901
295.12332 113.64998 65.845528
296.56314 113.47421 65.428391
297.40845 113.73739 65.947601
298.20407 113.37082 65.196869
299.31583 113.54527 65.553024
300.65295 113.51594 65.468452
301.19482 113.66468 65.736664
302.06567 113.45386 65.312401
303.50436 113.37424 65.118324
305.50598 113.51003 65.377129
306.79282 113.36083 65.036301
307.56705 113.47827 65.27562
308.44073 113.6754 65.604965
309.51636 113.72201 65.693542
310.84537 113.49121 65.250252
312.36465 113.6341 65.532127
313.46497 113.73306 65.653648
314.4725 113.70715 65.563416
315.37933 113.60254 65.414909
316.46161 113.63029 65.452591
317.31235 113.6567 65.50042
318.12201 113.70556 65.566528
319.98837 113.73196 65.573997
320.68887 113.82337 65.690758
321.52313 113.82756 65.685669
322.38992 113.70023 65.489769
323.5777 113.83624 65.664795
324.12253 113.48898 65.030342
325.43716 113.58496 65.214905
326.38098 113.75684 65.480232
327.36682 113.76385 65.499992
328.16315 113.9826 65.799545
329.67191 113.57372 65.1222
330.11517 113.6877 65.346695
332.02942 113.5582 65.050713
333.16223 113.92446 65.635498
334.58246 113.62015 65.142204
335.76285 113.85925 65.482513
336.60388 113.85268 65.477211
337.50977 113.72564 65.258446
338.46359 113.85262 65.446991
339.13513 113.82016 65.372551
341.55258 113.90966 65.478401
342.61267 113.76286 65.251564
346.65088 113.84916 65.309387
348.12219 113.92025 65.387093
349.49231 113.7265 65.08815
350.51077 113.87326 65.281273
352.12268 113.82434 65.18528
353.61807 113.79018 65.112267
354.50626 113.85213 65.186363
356.33252 113.8877 65.207581
362.07336 113.87617 65.098083
364.2774 113.87567 65.061668
367.65381 113.94276 65.102776
369.95618 113.89902 65.002998
370.25919 113.94844 65.068665
372.91376 113.94955 65.027267
40.283566 114.6067 65.429909
124.21568 114.58462 65.40274
248.97276 114.59409 65.175011
249.13499 114.73606 65.686073
252.2113 114.511 65.461639
320.62073 114.01141 65.962906
324.41919 114.00535 65.892708
329.40625 114.04478 65.868225
330.87323 114.0515 65.854034
335.78973 114.20752 65.981071
343.1456 114.21471 65.869072
345.60181 114.15686 65.746521
347.21521 114.05807 65.598648
348.88052 114.03333 65.536316
349.82788 114.01245 65.49115
350.46179 114.41273 65.948578
351.35947 114.44702 65.96833
352.41345 114.3775 65.881729
353.76334 114.19839 65.661697
354.44354 114.37627 65.847603
355.65091 114.21038 65.662125
356.43057 114.31024 65.749367
357.59381 114.39987 65.820168
358.68939 114.35403 65.745285
359.59799 114.27915 65.657234
360.74832 114.20328 65.560226
361.59918 114.2178 65.5541
362.84561 114.38271 65.717903
363.36401 114.30119 65.608139
364.5387 114.03941 65.291306
365.73892 114.3065 65.594795
366.50363 114.37138 65.647308
368.33276 114.16724 65.40979
369.64706 114.19203 65.417
370.23474 114.23737 65.44191
372.72113 114.76974 65.943375
373.52246 114.3422 65.504395
374.46161 114.33186 65.478836
375.55511 114.19917 65.294472
376.65894 114.30119 65.404762
377.60364 114.11697 65.175446
378.82532 114.44148 65.478683
379.24207 114.80275 65.868454
380.60635 114.07784 65.085846
381.67392 114.38393 65.414062
382.45471 114.47672 65.469337
383.63516 114.35977 65.358116
384.50476 114.53353 65.499725
385.67834 114.30087 65.266106
386.41873 114.65535 65.590729
387.65616 114.41454 65.340836
389.51773 114.68685 65.574463
390.47159 114.63491 65.511703
391.48431 114.53016 65.39679
392.30402 114.62482 65.471367
393.77484 114.71991 65.554008
395.1813 114.53634 65.347626
396.03873 114.43591 65.233284
397.12192 114.79839 65.575409
398.05386 114.53815 65.302902
399.87186 114.80224 65.533798
400.51038 114.43459 65.159515
401.28555 114.35889 65.071243
404.57007 114.74507 65.387909
405.14948 114.73558 65.385384
407.7049 114.62579 65.234184
409.1586 114.57011 65.154938
412.1377 114.7681 65.290222
413.57776 114.68839 65.201614
415.56607 114.68597 65.157227
420.81018 114.65431 65.050362
422.66852 114.83525 65.189766
424.45148 114.79845 65.132645
425.44058 114.7376 65.05864
428.47083 114.81522 65.080383
431.41797 114.86863 65.073616
434.629 114.8827 65.032387
435.42075 114.91201 65.042053
40.281425 115.40964 65.298172
124.21568 115.28966 65.534149
127.21568 115.32616 65.101936
252.23875 115.56211 65.54818
386.03125 115.06659 65.952019
387.66544 115.12461 65.970551
388.58047 115.06083 65.907043
390.27094 115.21072 65.992592
391.75049 115.00229 65.811691
393.71997 115.11412 65.86618
394.98996 115.28851 65.965698
398.10907 115.05357 65.749886
399.21371 115.24346 65.863686
400.4805 115.26806 65.862854
401.58264 115.26373 65.843094
402.39481 115.32989 65.870049
404.4642 115.34402 65.847549
405.59564 115.30304 65.80114
408.76233 115.54581 65.899162
409.78299 115.34191 65.760033
410.87271 115.38311 65.768623
411.38828 115.33414 65.729065
412.84698 115.34399 65.711716
413.52948 115.31155 65.679985
414.63495 115.33012 65.65995
415.47006 115.40832 65.710197
416.24973 115.02429 65.438812
419.6449 115.40848 65.542587
422.32495 115.58039 65.69133
423.50623 115.41943 65.580856
424.45535 115.6199 65.666901
425.32498 115.39724 65.526054
426.38452 115.41972 65.540619
427.61713 115.28311 65.423767
428.42978 115.44446 65.516418
430.71906 115.43662 65.459442
431.33115 115.62438 65.57254
432.52505 115.3046 65.367775
433.68549 115.96513 65.707329
434.56143 115.22883 65.286507
436.45667 115.5225 65.427979
437.86087 115.53722 65.425209
438.32959 115.513 65.398735
439.17554 115.49963 65.371109
440.44278 115.42848 65.311111
441.67398 115.61249 65.384117
442.53986 115.49371 65.316505
443.76093 115.66833 65.383728
445.48047 115.18517 65.08036
446.43134 115.46992 65.239433
448.68396 115.44457 65.187294
449.77957 115.22488 65.037407
450.82767 115.19755 65.001404
451.6207 115.75651 65.309731
452.39447 115.65613 65.251633
453.14795 115.49701 65.142822
454.81323 115.65402 65.209152
455.52502 115.49654 65.111763
456.5657 115.66756 65.189995
457.74963 115.85868 65.265526
458.63535 115.85498 65.249306
459.92587 115.61693 65.1092
460.7699 115.55222 65.061821
461.76947 115.78691 65.166252
462.78986 115.69217 65.101967
463.00189 115.78687 65.146072
465.78033 115.83598 65.123489
466.46271 115.72897 65.061615
468.68274 115.98427 65.145142
471.47318 115.95114 65.084023
40.285927 116.42477 65.575882
124.21568 116.45734 65.341644
127.21568 116.52224 65.646141
249.01813 116.01984 65.317963
252.14536 116.1593 65.253922
416.33554 116.29115 65.21981
419.46967 116.34873 65.582985
423.06506 116.04953 65.914368
424.61792 116.2167 65.958458
425.06134 116.23398 65.958427
426.20682 116.38356 65.992577
427.51453 116.3651 65.964714
428.51392 116.25383 65.910721
429.30338 116.27884 65.902687
430.69135 116.50024 65.956711
431.05927 116.23401 65.861259
432.28952 116.6191 65.967354
433.43018 116.65911 65.959435
434.77731 116.60777 65.924416
435.69382 116.17857 65.763206
436.50446 116.50127 65.862846
437.63135 116.46723 65.833855
438.66339 116.00565 65.643463
439.22992 116.94377 65.935959
440.25061 116.43047 65.779816
441.45398 116.39904 65.747154
442.47089 116.56496 65.783524
444.35062 116.41018 65.706993
445.45013 116.94412 65.835251
446.57428 116.43097 65.664314
448.56555 116.7115 65.728935
449.13507 116.81209 65.746269
450.45004 116.15564 65.514618
453.43329 116.5461 65.593315
454.52432 116.82014 65.658646
455.93103 116.4806 65.532333
456.95462 116.72791 65.596115
457.52695 116.97616 65.646675
458.69022 116.61647 65.537849
459.3472 116.48396 65.474754
460.89536 116.52905 65.47641
461.53384 116.4295 65.430588
462.10999 116.52624 65.433716
463.34882 116.47962 65.396126
464.54767 116.46645 65.392242
465.61115 116.41053 65.349754
466.50107 116.68196 65.427643
467.68503 116.50601 65.351898
468.60202 116.60028 65.356216
470.51062 116.18918 65.202904
471.61969 116.65805 65.337509
472.15952 116.52747 65.293198
473.33643 116.43034 65.234283
475.63025 116.31022 65.151154
476.70151 116.61665 65.240829
477.69772 116.5601 65.210228
479.46884 116.54792 65.17318
480.92087 116.84184 65.234612
481.50595 116.20412 65.031517
482.76172 116.56092 65.128197
483.84818 116.69576 65.147583
485.47675 116.50659 65.068817
486.20782 116.53883 65.06694
487.37421 116.87347 65.137527
489.50882 116.59282 65.027405
491.40448 116.93905 65.089172
492.49103 116.91363 65.064453
494.37842 116.90628 65.031754
496.06107 116.93379 65.011597
40.282387 117.63902 65.357498
127.21568 117.09702 65.123932
249.02068 117.32275 65.325989
252.22591 117.47811 65.507729
416.33551 117.34208 65.481186
419.33554 117.46529 65.772125
441.466 117.05145 65.923599
442.50201 117.87856 65.995285
443.6123 117.55398 65.959038
445.39322 117.53783 65.922363
446.44525 117.52036 65.909729
447.68747 117.16357 65.844788
448.46225 117.44302 65.86087
450.37128 117.40469 65.833061
451.52423 117.96743 65.852982
452.38065 117.55219 65.815147
453.31046 117.64957 65.800262
454.68552 117.48054 65.761444
455.70148 117.29282 65.728241
456.61719 117.7106 65.753716
457.36716 117.1026 65.677299
458.54587 117.61767 65.717865
459.55609 117.21172 65.658829
460.41296 117.64209 65.692009
462.65961 117.4926 65.642197
463.24796 117.14375 65.590057
464.12454 117.94942 65.648041
466.12054 117.53129 65.588989
467.6145 117.71745 65.579041
468.50256 117.56001 65.552216
469.13403 117.04835 65.474617
470.64728 117.43788 65.50222
471.62894 117.78805 65.518456
472.87552 117.35101 65.453133
474.79199 117.93983 65.474792
475.2663 117.58842 65.44442
476.60864 117.54639 65.417267
477.65924 117.26149 65.372063
478.77124 117.64601 65.388596
479.85916 117.46939 65.354462
481.27396 117.56116 65.332237
482.20959 117.49023 65.322289
484.79236 117.87416 65.309875
486.50513 117.71176 65.271431
487.89862 117.02068 65.164444
488.53082 117.55782 65.224838
489.66251 117.54092 65.195938
491.53094 117.08781 65.120476
492.88199 117.06057 65.092545
494.45172 117.26788 65.09581
495.58853 117.82048 65.128845
496.72452 117.48013 65.0811
497.32019 117.58245 65.08326
498.27463 117.89871 65.092506
499.91705 117.20031 65.003372
500.45404 117.8347 65.053726
501.3223 117.47794 65.008667
40.281914 118.40431 65.328384
124.21568 118.52911 65.316658
127.21568 118.69697 65.51799
248.95903 118.15617 65.131775
249.03749 118.25406 65.37896
416.33551 118.82812 65.102257
419.33554 118.44354 65.902466
440.90509 118.93452 65.935791
441.10413 118.90285 65.93959
442.90826 118.04046 65.992249
443.54971 118.46892 65.945366
444.7644 118.38381 65.937691
445.37393 118.14796 65.947601
446.91257 118.3919 65.909813
447.26199 118.43835 65.895546
448.53131 118.7234 65.843796
449.30838 118.43799 65.85968
450.60208 118.53757 65.826027
451.61517 118.70985 65.797813
452.29565 118.70912 65.782303
453.34384 118.19022 65.815948
454.53992 118.36646 65.7873
455.44824 118.29762 65.776657
456.54163 118.41022 65.747757
457.42728 118.86871 65.681046
458.15109 118.958 65.651161
459.26117 118.38522 65.705978
460.74457 118.22935 65.695007
461.63867 118.50784 65.65406
462.6842 118.70227 65.615898
463.59213 118.83656 65.583885
464.77261 118.64923 65.586143
465.32257 118.51451 65.595413
467.35025 118.9781 65.497658
468.40717 118.76105 65.518997
469.4082 118.44981 65.536873
470.6655 118.76682 65.479485
471.87546 118.71732 65.468559
472.02597 118.04173 65.520401
474.88031 118.48174 65.444595
475.51169 118.54263 65.428413
477.41183 118.65833 65.379326
478.09283 118.95081 65.329651
479.65488 118.50799 65.350952
480.50104 118.76518 65.322502
481.51779 118.27755 65.349991
482.64706 118.59749 65.306763
483.42505 118.97199 65.238548
484.3707 118.19135 65.311111
485.73706 118.36961 65.276871
486.96851 118.84164 65.207642
487.90466 118.19006 65.255127
488.56293 118.79215 65.188324
489.1687 118.25701 65.228333
490.39435 118.81355 65.155838
491.29385 118.66329 65.160301
492.72583 118.69221 65.13269
493.45639 118.52475 65.13707
494.12247 118.8091 65.096008
496.68622 118.65332 65.066772
497.47864 118.52807 65.070992
500.72559 118.3108 65.035225
501.09784 118.01371 65.050583
502.46094 118.40058 65.000679
503.02222 118.19527 65.009468
40.285084 119.33028 65.523888
124.21568 119.45742 65.378906
127.21568 119.87917 65.597809
249.08809 119.69581 65.538315
416.33551 119.65991 65.872612
419.36401 119.61667 65.684982
421.16278 119.89082 65.969894
422.1474 119.93847 65.934204
424.61041 119.76099 65.967819
427.14105 119.81267 65.905411
428.49786 119.62924 65.951416
429.59692 119.69096 65.906578
433.38318 119.54395 65.899162
434.05151 119.30889 65.960754
435.60455 119.59912 65.84082
436.55157 119.50553 65.853836
437.62589 119.66917 65.790924
438.83865 119.41619 65.851059
440.60172 119.83182 65.674767
441.48218 119.45535 65.78968
442.42676 119.87108 65.633545
443.41574 119.15114 65.845352
444.96179 119.30151 65.784393
446.56241 119.43261 65.720734
447.35458 119.21278 65.767944
448.10352 119.03242 65.797455
449.63147 119.26587 65.715088
450.46823 119.6381 65.585297
452.54721 119.76255 65.506508
453.29184 119.74829 65.508369
454.59366 119.81803 65.458389
455.20218 119.92614 65.403748
456.15469 119.36153 65.57254
457.45581 119.20882 65.604576
458.57355 119.69873 65.435669
459.26505 119.73831 65.410469
460.75339 119.28288 65.531075
461.85938 119.43287 65.472794
462.56961 119.74697 65.348473
463.22638 119.83513 65.311432
464.5914 119.53809 65.395348
465.90112 119.35279 65.427773
466.95428 119.84505 65.246918
467.41809 119.52465 65.353561
468.52512 119.19891 65.425255
469.70807 119.59981 65.275085
470.33469 119.91947 65.161324
471.71701 119.68397 65.233894
472.26477 119.86356 65.151924
473.21085 119.47351 65.26181
474.57422 119.78297 65.142014
475.36703 119.64429 65.1605
476.37775 119.0731 65.330322
477.03873 119.12126 65.308006
478.70438 119.46963 65.171364
480.4393 119.14838 65.24511
481.15973 119.59789 65.10804
482.58914 119.56639 65.09481
483.60541 119.63122 65.057907
484.92999 119.72354 65.006004
485.72922 119.34365 65.10524
486.44205 119.34606 65.093948
487.61023 119.0735 65.146614
490.38272 119.04865 65.108459
494.98407 119.16019 65.004036
40.284016 120.38177 65.458176
124.21568 120.30296 65.792709
248.98329 120.08742 65.208191
249.20888 120.39392 65.918793
252.24052 120.44288 65.553688
384.98685 120.93542 65.976295
386.45844 120.99283 65.908394
394.59848 120.80159 65.908638
396.48694 120.84654 65.847244
397.48502 120.89669 65.797768
399.75943 120.67077 65.90979
401.70331 120.83548 65.77388
403.48309 120.72135 65.818253
404.67596 120.80726 65.744522
405.52997 120.53589 65.905296
407.33804 120.55404 65.858238
408.32355 120.82864 65.672409
410.10974 120.65509 65.748283
411.4187 120.41772 65.86795
412.68524 120.65425 65.706696
413.95044 120.92764 65.512985
414.86188 120.52643 65.761223
415.4559 120.52158 65.741035
416.28622 120.55733 65.399529
419.33554 120.99729 65.217621
420.42477 120.16342 65.863579
421.61212 120.72174 65.511597
422.59586 120.45058 65.667793
423.41345 120.64703 65.535141
425.52609 120.05361 65.831772
426.33185 120.65948 65.491013
427.60391 120.68043 65.457054
428.44183 120.26819 65.678253
429.66211 120.3489 65.603516
431.62817 120.56911 65.462784
432.18567 120.91516 65.226608
433.55151 120.02995 65.71154
435.94833 120.24261 65.570831
436.42944 120.44186 65.445992
437.69479 120.28201 65.521095
438.39435 120.49874 65.371323
439.33545 120.4285 65.419167
440.41391 120.25352 65.49279
441.62305 120.44646 65.343796
442.5896 120.30135 65.432632
443.61011 120.35925 65.37912
444.24783 120.4361 65.327042
445.40836 120.05708 65.506805
446.22534 120.65755 65.169922
447.6618 120.57624 65.185242
449.45227 120.46362 65.229584
450.5527 120.53718 65.176498
451.47034 120.74039 65.032158
452.82465 120.18007 65.325867
454.87268 120.01505 65.371506
455.15213 120.30676 65.220535
456.36078 120.17055 65.272797
457.3591 120.04739 65.315712
458.71313 120.33259 65.155128
459.77478 120.44158 65.080963
460.55762 120.27426 65.152824
461.83496 120.32288 65.109596
463.88226 120.36893 65.052452
464.45276 120.24974 65.099976
465.26309 120.20569 65.112526
467.70825 120.0937 65.124733
469.18649 120.07071 65.111259
473.60886 120.14794 65.002861
40.291756 121.59573 65.935974
124.21568 121.67508 65.581467
127.21568 121.16531 65.620506
248.98904 121.85612 65.226326
249.11591 121.49612 65.625938
252.20525 121.76248 65.442604
326.85712 121.97716 65.878197
329.61514 121.89796 65.946617
330.82245 121.8682 65.969559
332.31015 121.92658 65.862076
334.1857 121.8364 65.955704
336.44427 121.90134 65.823479
338.23401 121.84079 65.888626
341.03162 121.71909 65.969528
343.63361 121.91714 65.692093
345.57935 121.8299 65.758705
346.98633 121.92313 65.629196
347.33032 121.78623 65.787994
348.53333 121.88596 65.653931
350.43604 121.61769 65.918564
352.75537 121.99614 65.431465
353.70096 121.67238 65.810974
354.75125 121.83996 65.608154
355.55862 121.52319 65.930092
356.54663 121.89994 65.507431
358.50436 121.51827 65.887276
359.40726 121.55071 65.840202
360.73706 121.47234 65.897026
361.44324 121.97138 65.326042
363.40732 121.63556 65.684441
364.57849 121.59062 65.716499
365.51089 121.7063 65.574844
366.74188 121.55354 65.718536
367.23328 121.8657 65.358643
368.53091 121.54916 65.693924
369.40549 121.61423 65.614677
370.19202 121.94351 65.224113
371.29346 121.65884 65.50827
372.21707 121.43166 65.749405
373.22137 121.49546 65.671249
374.49097 121.47703 65.669495
375.64847 121.64746 65.46125
376.1474 121.22634 65.888931
377.56378 121.44019 65.65123
378.60812 121.47462 65.605186
379.63528 121.5071 65.556068
380.68506 121.58306 65.435516
381.57611 121.68467 65.33963
382.56781 121.37691 65.631088
383.27399 121.70569 65.284142
384.5791 121.52605 65.445251
385.59665 121.39478 65.571823
386.01709 121.78887 65.170853
388.64435 121.39443 65.522781
389.94061 121.67751 65.218658
390.67596 121.3446 65.517319
391.26276 121.30232 65.568039
392.55127 121.67587 65.178001
393.25458 121.38963 65.452881
394.70627 121.02818 65.747635
395.88672 121.73643 65.063393
396.42316 121.32193 65.465607
397.29626 121.29737 65.479668
398.72763 121.32739 65.42025
399.64499 121.2993 65.431709
400.5434 121.16479 65.540359
401.5491 121.36176 65.338722
402.0441 121.47323 65.226868
403.70282 121.08946 65.554832
405.41498 121.44931 65.196159
406.25018 121.60609 65.025826
409.6149 121.30942 65.261856
411.08942 121.06184 65.456352
412.43961 121.2751 65.253258
414.69501 121.38954 65.105583
419.82574 121.19308 65.214096
420.89697 121.07662 65.286095
421.49182 121.13648 65.220886
423.29572 121.16224 65.181534
424.34711 121.16368 65.157257
425.79861 121.17734 65.129395
426.03104 121.17282 65.129089
429.50726 121.08363 65.141212
431.6463 121.15555 65.051361
40.369122 122.45057 65.53186
41.684555 122.43481 65.218445
42.454445 122.47908 65.300941
43.077171 122.54194 65.425667
44.37825 122.56072 65.444862
45.591522 122.48944 65.28463
46.501602 122.63252 65.565765
47.326385 122.59263 65.46891
48.798248 122.54739 65.369911
49.467525 122.58001 65.421844
50.334812 122.51079 65.268616
51.451855 122.46925 65.134056
52.201962 122.59226 65.385765
53.594406 122.65021 65.499016
54.192852 122.54153 65.244667
55.284077 122.63773 65.457817
56.144932 122.72168 65.664459
57.789852 122.59769 65.306847
59.872585 122.71306 65.543732
60.482552 122.74803 65.664368
61.275154 122.62011 65.29847
62.235298 122.77586 65.739838
63.54401 122.57961 65.174828
64.63736 122.7645 65.658531
66.317245 122.74798 65.569641
67.133171 122.70837 65.408585
68.39196 122.85563 65.93782
69.366653 122.79643 65.701065
70.564499 122.67169 65.258575
71.324791 122.71541 65.428459
72.350037 122.64203 65.166046
74.23761 122.76614 65.509117
75.664032 122.67462 65.205276
77.385307 122.79536 65.567146
78.564194 122.74442 65.387917
80.284012 122.74657 65.338074
81.856651 122.78912 65.47142
82.246216 122.73387 65.258873
83.70163 122.89067 65.820572
84.452904 122.74084 65.249115
85.260338 122.79934 65.454399
86.425339 122.791 65.407814
87.85009 122.72566 65.137459
88.742302 122.8121 65.445648
89.053627 122.80529 65.415161
90.853088 122.89193 65.731171
91.694191 122.92928 65.875526
