# .PCD v0.7 - Point Cloud Data file format
VERSION 0.7
FIELDS x y z
SIZE 4 4 4
TYPE F F F
COUNT 1 1 1
WIDTH 849
HEIGHT 1
VIEWPOINT 0 0 0 1 0 0 0
POINTS 849
DATA ascii
4.1282549 3.282114 8.0856895
4.3983216 3.2579665 8.066988
4.7287688 3.2504387 8.0202742
4.9293513 3.2160084 8.0374346
5.2427273 3.192692 8.0270777
5.4611549 3.2178369 8.0368929
2.395463 3.5328341 8.0826092
2.5232291 3.5441015 8.0347338
2.8531466 3.5000265 8.0377188
3.1265612 3.5078571 8.0132236
3.4429629 3.4657655 8.0238495
3.7598567 3.4268878 8.0161724
4.0528684 3.4363194 8.0122051
4.3411198 3.4415946 8.0022678
4.6587768 3.4620972 8
4.945837 3.4406447 8
5.2306924 3.4684026 8
5.5932021 3.4291549 8.0001574
5.8578329 3.399349 8.0248652
6.1535845 3.4977946 8.0260391
6.3929896 3.5474286 8.0608006
2.5765913 3.7412553 8.0132427
2.8500047 3.7560542 8
3.1754978 3.716397 8
3.4322839 3.732444 8
3.7600343 3.7357113 8
4.0881772 3.7726855 8
4.3450422 3.7260602 8
4.652843 3.7584205 8
4.923686 3.7384102 8
5.2533479 3.7383964 8
5.5573015 3.7209833 8
5.8824201 3.7440667 8
6.1151233 3.7416711 8
6.4750443 3.7657859 8.0031643
6.7622056 3.770906 8.0135422
7.0098243 3.8243015 8.0103331
7.2849689 3.8845 8.0730104
2.6198881 4.0032849 8.0204601
2.8720877 4.0746536 8
3.1597052 4.0611062 8
3.4379518 4.0616412 8
3.7015338 4.0321722 8
4.0452204 4.0407524 8
4.3436766 4.0275545 8
4.6911817 4.0727124 8
4.9322748 4.0716505 8
5.2207417 4.0604205 8
5.4933987 4.0655255 8
5.8723745 4.0236635 8
6.1619687 4.0448756 8
6.428947 4.0762258 8
6.7491302 3.9996305 8
7.0245304 4.0627432 8
7.323081 4.0304475 8.0289888
2.6626477 4.3392248 8.0332012
2.8467262 4.3495598 8.0011978
3.1204355 4.3000531 8
3.4779751 4.3418374 8
3.7460191 4.3339581 8
4.0515246 4.3384809 8
4.3395505 4.3544955 8
4.6367931 4.3411646 8
4.9334922 4.3438425 8
5.2481084 4.3148823 8
5.518713 4.3185272 8
5.8883901 4.3361712 8
6.1039262 4.3312383 8
6.445632 4.3510709 8
6.7563839 4.388792 8
7.0605145 4.3709526 8.0136595
7.2480493 4.2734036 8.0618801
2.6911199 4.548274 8.0787697
2.8056362 4.6359286 8.0211039
3.1190948 4.6152425 8
3.4460561 4.6719494 8
3.7548254 4.6361599 8
4.0129957 4.6410069 8
4.3271079 4.6552744 8
4.5958118 4.6568213 8
4.8471732 4.6614928 8
5.24932 4.6633224 8
5.5721927 4.6620121 8
5.875999 4.666502 8
6.1606822 4.6248531 8
6.4104114 4.6382704 8
6.7552319 4.6348777 8
6.9945168 4.6064701 8.0296621
2.8690102 4.9133821 8.0339327
3.0911176 4.9653592 8
3.4612288 4.9479218 8
3.7543752 5.0014329 8
4.08567 4.9547415 8
4.3435235 4.9486814 8
4.6634555 4.9725838 8
4.9086614 4.9495568 8
5.2620711 4.9400039 8
5.5787177 4.9496608 8
5.8408446 4.9774218 8
6.1567316 4.9141207 8
6.4203176 4.9068403 8
6.7378154 4.9471059 8.0182924
2.9112248 5.2006702 8.04879
3.16714 5.2161946 8
3.4673975 5.2508383 8
3.7614563 5.2451577 8
4.0474148 5.2435312 8
4.3615031 5.2209144 8
4.636209 5.3013787 8
4.9518085 5.2301884 8
5.2236767 5.2529526 8
5.5490346 5.2402029 8
5.8383331 5.2731209 8
6.1639299 5.259994 8
6.4949279 5.2665753 8.0049772
6.6699324 5.2126646 8.0530415
2.9525084 5.4030857 8.0547361
3.1026483 5.55267 8.0088243
3.4287128 5.5266032 8
3.7462955 5.5499277 8
4.0353794 5.5783091 8
4.3631363 5.5478253 8
4.6397433 5.5223913 8
4.9732637 5.5454016 8
5.2253804 5.5550466 8
5.5349889 5.5558162 8
5.8618813 5.5699773 8
6.1727386 5.5288572 8
6.4145212 5.5289183 8.0267496
3.1829965 5.7402644 8.0689697
3.5145292 5.8578916 8.0697832
3.755187 5.8490887 8.0247602
4.0670428 5.822083 8
4.312768 5.8330221 8
4.6816015 5.8643355 8
4.9320812 5.8556719 8
5.2151041 5.8121533 8
5.5735459 5.8860316 8
5.892519 5.8133955 8
6.1304212 5.826324 8.0070791
4.1164608 6.03931 8.0350237
4.324491 6.1122317 8.0288639
4.6593523 6.1453433 8.0150614
4.969141 6.180656 8
5.242394 6.1334801 8
5.5313358 6.1659236 8
5.8518872 6.1752419 8
6.0888929 6.1365399 8.03339
4.7728276 6.3127799 8.0866613
4.9265447 6.3437042 8.0484734
5.2567797 6.4073577 8.0320482
5.5453868 6.4408302 8.0102987
5.8339205 6.3941784 8.0106087
6.0291672 6.3035069 8.0881166
5.595439 6.6045241 8.0884876
5.8335519 6.6327338 8.0954103
5.3228736 2.9761076 8.3451061
5.4475832 2.9806881 8.3863068
2.9568336 3.2785852 8.3527803
3.1584384 3.2508473 8.3555012
3.4766779 3.2358007 8.3104334
3.7831395 3.2476075 8.2218628
4.0451732 3.1934478 8.2565031
4.3368969 3.1633339 8.2432213
4.6526732 3.1186659 8.2495813
4.9339352 3.0876696 8.2401476
5.2081203 3.0755937 8.1997948
5.538528 3.1052237 8.2418709
5.8260651 3.2029579 8.2634544
6.0293736 3.2300217 8.3466406
2.3397012 3.4673457 8.2435932
2.5664485 3.3791783 8.2669849
2.8537841 3.3551033 8.2443123
3.126147 3.3578804 8.1788511
3.3482056 3.3304379 8.1765051
3.65537 3.309845 8.1434317
5.9239945 3.3293686 8.1203499
6.1649537 3.3644819 8.2140331
6.4455791 3.4398243 8.2674799
6.7104259 3.5377083 8.2746592
6.9070868 3.540858 8.3923321
2.3223879 3.7370327 8.3023682
2.4407451 3.8216321 8.1460896
6.7995176 3.6476064 8.1527157
7.0325875 3.6954699 8.2208738
7.3496528 3.8080316 8.2369356
7.5870037 3.8436975 8.3274717
2.3493328 3.9569156 8.3632326
2.4646695 4.0779634 8.2295017
7.4406538 4.108501 8.2112169
7.5573406 4.0008292 8.2802382
2.5424945 4.3089981 8.2110605
7.1826096 4.4719377 8.1439695
7.3245564 4.3477454 8.2420349
2.6147611 4.644495 8.2520857
2.7133591 4.7675891 8.147192
7.1460681 4.6706805 8.2689972
7.2292833 4.5771742 8.3078346
2.6476815 4.884305 8.3125858
2.738888 4.9077821 8.1721039
6.8932362 4.9908051 8.1834507
6.9838357 4.9673667 8.2963486
2.6705179 5.1320996 8.3937035
2.8216715 5.2424779 8.1952438
6.7520638 5.2935295 8.2473974
2.8924124 5.5912805 8.2452049
6.5488472 5.5911751 8.2149887
6.6600647 5.5464683 8.339221
2.9200158 5.7482238 8.288846
3.1429799 5.8485312 8.2688723
3.4463103 5.9162612 8.2044678
3.6592247 5.9620585 8.156415
6.2492671 5.9608521 8.1049414
6.4127798 5.8641281 8.2596607
3.4682357 6.0308189 8.3789053
3.7784581 6.0579481 8.2442188
4.0388708 6.1538754 8.2506275
4.3088064 6.2469335 8.2468557
6.2232285 6.1412606 8.2289829
6.3258419 6.0802884 8.3258324
4.3703017 6.3298802 8.346837
4.6401196 6.38169 8.2757721
4.9602757 6.4820447 8.2549391
5.2212596 6.5315948 8.1852798
5.4381504 6.5882058 8.1525917
5.9694939 6.4642162 8.1446552
6.0998421 6.4455729 8.3206711
5.071681 6.603735 8.3893967
5.2892652 6.6416755 8.3258171
5.5790315 6.688951 8.235837
5.8367877 6.7365766 8.2543526
3.732604 2.97878 8.6948776
4.0725317 2.9659436 8.64118
4.347249 2.9657819 8.5802422
4.6646371 2.9347544 8.5628128
4.9459763 2.9141221 8.5355616
5.2468929 2.8894918 8.5138874
5.5573416 2.9065638 8.5745792
5.7970262 2.9699452 8.6217966
2.0605998 3.2387083 8.620985
2.2733793 3.2246065 8.5977936
2.5849998 3.2270768 8.5241108
2.8665843 3.158551 8.5790701
3.1508393 3.134105 8.5577183
3.4336562 3.1047707 8.545084
3.7472975 3.0741508 8.5277901
4.0188928 3.0779324 8.4607744
4.4165339 3.0305912 8.4534836
4.5798306 3.007874 8.4561157
5.6142898 3.014792 8.4352703
5.9533167 3.0605073 8.573041
6.1308117 3.1505675 8.538331
6.4456244 3.2286744 8.608654
6.6553059 3.289331 8.6415424
2.0406613 3.416775 8.6172113
2.2135458 3.3985932 8.4573002
2.5134511 3.30022 8.4144192
6.4338975 3.3270576 8.4423809
6.7625465 3.4065101 8.519165
7.0538855 3.4982421 8.5528193
7.2971916 3.5519264 8.6179638
2.0593796 3.6296129 8.6883774
2.1748893 3.7450321 8.551651
7.3497524 3.6591945 8.4774666
7.6450663 3.7312679 8.5453644
7.8957982 3.820117 8.630538
2.291832 4.0684314 8.5125208
7.683538 4.0697556 8.5225658
7.8188219 3.9822445 8.6438293
2.3317132 4.3653913 8.5889111
2.412271 4.2795134 8.4135799
7.4417944 4.4277973 8.4875908
7.5980024 4.304543 8.6075964
2.3758461 4.7035899 8.6780481
2.4599841 4.6459546 8.5103378
7.3517256 4.6323743 8.5386915
7.5043778 4.540627 8.6818314
2.5148504 4.9623718 8.5711451
7.1150522 4.972878 8.4954119
7.2490692 4.896275 8.62463
2.5969095 5.2856588 8.5900068
6.8627601 5.344955 8.4574785
6.9984908 5.2588005 8.5806246
2.6448672 5.5146289 8.6202745
2.7566214 5.5987196 8.4747381
6.7868161 5.5464892 8.5267363
6.9235249 5.472683 8.6624537
2.696969 5.7860999 8.6640759
2.8711452 5.885375 8.5305052
3.1027577 5.9442692 8.448432
6.5633574 5.9057655 8.5199156
6.6630373 5.8049226 8.5764999
2.9718981 6.0219126 8.6507359
3.1516583 6.0792823 8.6407099
3.4135604 6.1134372 8.5453787
3.7673457 6.2173519 8.5109577
3.99512 6.2566762 8.443758
6.280375 6.258338 8.4190083
6.4397988 6.1595497 8.5658188
6.60286 6.0000081 8.6632671
3.8037243 6.3269339 8.6689281
4.0489793 6.360733 8.5826206
4.3353333 6.4677143 8.5921164
4.6289058 6.517972 8.5048046
4.9086366 6.5730715 8.4333935
6.2217216 6.4385581 8.4946365
6.3816223 6.3237925 8.6277552
4.6997204 6.6196084 8.6299324
4.9421663 6.6697564 8.5719452
5.2431946 6.7690306 8.5603857
5.4651875 6.8148947 8.5072021
5.8837147 6.8577805 8.4536858
6.0977836 6.7342167 8.5777082
5.5649519 6.934217 8.6445093
5.8947344 6.9741049 8.5935574
6.0137749 6.933548 8.63305
4.7419796 2.6835115 8.9771261
4.8532901 2.6923859 8.9370813
5.2464404 2.6478548 8.9260464
5.5043311 2.6621807 8.9363289
2.3088329 2.996856 8.9810896
2.552978 2.986203 8.9449844
2.8116381 2.9790564 8.8996229
3.1785712 2.9331348 8.8967361
3.4247997 2.9133606 8.8758335
3.7278976 2.8813541 8.8632708
4.0471239 2.8456557 8.8534555
4.3662381 2.7835851 8.8889618
4.6690335 2.7944541 8.8028212
4.9549637 2.7544069 8.8078938
5.2271733 2.7427967 8.7671804
5.6361279 2.7840548 8.8216934
5.8691516 2.8666589 8.8336935
6.1249642 2.9142013 8.9165688
1.760658 3.1601624 8.9597816
1.9930427 3.1221588 8.8516626
2.1597383 3.0880158 8.8577318
2.5438104 3.0696464 8.8037014
2.7559412 3.0533831 8.7843657
3.073302 3.0429733 8.7315292
3.402307 3.007005 8.7199974
6.19419 3.0499771 8.7404146
6.4634352 3.0929267 8.8390932
6.7259674 3.1675506 8.8824081
6.9923029 3.2362728 8.9376297
1.9166455 3.4582198 8.8434963
6.8589296 3.3170865 8.7238083
7.0855851 3.3515103 8.8096752
7.3514366 3.4078274 8.8846397
7.6629839 3.5328422 8.8771362
7.8703918 3.5520191 8.9756222
2.0074456 3.7434564 8.8295212
7.653194 3.6228545 8.7255945
7.964776 3.7050686 8.8389254
8.1507149 3.7291253 8.9447508
2.0520463 4.054821 8.9049826
2.139508 4.0558982 8.759963
7.9277668 4.0561647 8.8715887
2.0864799 4.3023038 8.9666529
2.1929991 4.3475313 8.8111458
7.7156773 4.3663182 8.837328
7.8382468 4.2568045 8.9199572
2.2510879 4.6528735 8.861268
7.4433327 4.7174659 8.7508707
7.5871158 4.6240611 8.8793955
2.3252287 4.9603348 8.8856974
2.402858 4.9934878 8.77246
7.3851089 4.9446197 8.8694239
2.3720486 5.1794858 8.9131374
2.4616976 5.2866349 8.8154688
7.1057019 5.3428416 8.8149395
7.2450719 5.2026744 8.8948011
2.5061767 5.5592198 8.8724899
7.0107598 5.5193019 8.8335009
2.5947106 5.8769517 8.8779068
6.8008461 5.8831925 8.8508739
6.9495502 5.7761202 8.9743643
2.6153419 6.0674634 8.9581537
2.865639 6.1153274 8.8646021
3.136827 6.2042055 8.8532829
3.4711993 6.2706265 8.7688313
3.6366601 6.2948151 8.7128668
6.5271001 6.2188263 8.7483683
6.6915827 6.1290212 8.9107561
3.2852421 6.3376641 8.9856043
3.4595418 6.3533053 8.9105816
3.7521296 6.4342585 8.8739719
4.0635314 6.5151668 8.8264341
4.3218579 6.5555644 8.7433586
6.2963529 6.5682368 8.7218809
6.4548869 6.4499378 8.8497934
4.1071119 6.6172142 8.9679441
4.3663497 6.6676793 8.9007845
4.646523 6.7312512 8.8429537
4.9634433 6.8301687 8.82164
5.2480855 6.8695097 8.7216587
6.2122211 6.8446746 8.8465157
6.3827672 6.664351 8.9363098
5.0860586 6.9457107 8.9395895
5.2717748 6.9591508 8.8543854
5.5733476 7.0507078 8.8299093
5.7953119 7.1261401 8.8275194
6.1417685 7.0077586 8.8892498
5.896647 7.2367601 8.9472198
6.0450315 7.2531152 8.9748049
3.453069 2.6759851 9.2772646
3.8057952 2.6672471 9.2136745
4.0569005 2.6355054 9.2122431
4.3418036 2.6161308 9.1820364
4.637238 2.5969625 9.1491299
4.9711561 2.5298407 9.1900139
5.226934 2.5352495 9.1237288
5.5288234 2.5581439 9.1198158
5.8296623 2.6258726 9.1980705
6.0633688 2.675159 9.264327
1.498701 2.9290831 9.2845964
1.6194189 2.9432864 9.2277355
1.9736001 2.9115143 9.2023773
2.2755172 2.8941033 9.1650085
2.5568202 2.876905 9.1318645
2.8500412 2.8312128 9.1450119
3.1741452 2.7922692 9.1396828
3.4392796 2.7710035 9.1171284
3.6990037 2.7507772 9.093996
3.9907615 2.7407377 9.0462275
4.4397612 2.706234 9.0054417
5.9205208 2.7292235 9.0878086
6.1875281 2.8005381 9.1392622
6.4367056 2.8932226 9.1450615
6.6934528 2.9489222 9.2153387
1.6518551 3.137078 9.1410494
1.9169681 3.0240884 9.0216341
6.7903562 3.0527992 9.1080008
7.0461397 3.1355202 9.1340179
7.3575959 3.2392919 9.1607809
7.6406231 3.285975 9.2620306
1.7076674 3.4162304 9.1710529
1.809718 3.4895561 9.0364885
7.4451399 3.3415527 9.050209
7.6989079 3.3829598 9.1417208
7.9533472 3.5041018 9.1048231
8.2328663 3.5280156 9.2406712
8.4703131 3.5856581 9.295763
1.7638258 3.7373042 9.2319489
1.8814067 3.7453604 9.0401659
8.2901402 3.7208588 9.1390104
8.4198542 3.702347 9.2806873
1.9124656 4.080564 9.149622
8.0399904 4.1138177 9.0895433
8.1702261 3.9939232 9.1741581
1.9837838 4.3366418 9.154047
2.111093 4.4626799 9.0027914
7.7722673 4.4720416 9.0162992
7.9275384 4.3418264 9.1286488
2.040102 4.583715 9.1791039
2.1286139 4.6980524 9.0867834
7.709868 4.7004781 9.1298304
7.8795648 4.5434542 9.2393627
2.081691 4.9317179 9.2771893
2.1754844 4.9926243 9.1503944
7.4591398 4.983057 9.013567
7.5924625 4.9389529 9.1710405
2.2394207 5.2322164 9.1591797
7.3598537 5.2707362 9.1259146
7.5265703 5.1503067 9.2640133
2.3111463 5.5378246 9.186738
2.4179242 5.6498656 9.0629187
7.1393881 5.624507 9.1185637
7.269712 5.5055747 9.2041769
2.389034 5.7650423 9.1663589
2.46225 5.8439074 9.0824385
6.8842068 5.9956012 9.0754719
7.0563846 5.8086886 9.1617432
2.3905599 6.0314178 9.2918701
2.5228581 6.1095347 9.1415949
2.8776917 6.2595396 9.0931644
6.8108168 6.1820736 9.1349325
6.9596963 6.050715 9.2367973
2.8611994 6.3340015 9.2242851
3.1712668 6.3934393 9.1424541
3.494844 6.4963202 9.1237745
3.6865118 6.5470233 9.0959902
3.9389677 6.5902567 9.0209351
6.5591087 6.5007148 9.0497141
6.6869326 6.4304876 9.1755152
3.5416842 6.617703 9.2949829
3.780653 6.6554046 9.2186737
4.0647178 6.7180877 9.1571426
4.3418093 6.8135514 9.1531734
4.6059618 6.8689032 9.0911579
6.4545789 6.7696428 9.1374092
6.6295853 6.6502175 9.2886753
4.4566641 6.933835 9.2833424
4.6398172 6.954731 9.2117929
4.9368968 7.066709 9.223258
5.2420216 7.104702 9.1092558
5.5420947 7.1803036 9.0595865
6.2065115 7.1304884 9.0956039
6.3865809 7.0006728 9.2449961
5.3076186 7.2150249 9.2515793
5.6133528 7.2790613 9.1797543
5.8579741 7.3465905 9.1488972
6.1552286 7.3161244 9.1892939
4.4383602 2.3738768 9.5766296
4.5979743 2.3712142 9.5456371
4.9215651 2.3491704 9.5113945
5.2515259 2.3281968 9.4738932
5.5082169 2.3378508 9.4683075
5.7372742 2.3515611 9.5835924
2.2542107 2.6619585 9.5685015
2.5703042 2.6421807 9.5320368
2.8680758 2.6251543 9.4949293
3.1678231 2.5818584 9.5025034
3.4174128 2.5770624 9.4551258
3.7686808 2.5237057 9.4685001
4.0928192 2.503231 9.4314413
4.369482 2.4609435 9.4424257
4.6526279 2.4574628 9.3853121
4.9658895 2.436311 9.3518381
5.2182932 2.4161921 9.3301525
5.601336 2.4296775 9.3725262
5.8575134 2.4858255 9.4417238
6.1958928 2.6014006 9.4662218
6.4240799 2.6558561 9.5206814
1.4001198 2.8820632 9.4718103
1.6310713 2.8184915 9.4384861
1.935537 2.7784107 9.4394865
2.2503157 2.7580924 9.4042435
2.5242746 2.734746 9.3832989
2.8330517 2.7199199 9.3399591
6.2377062 2.705045 9.3248701
6.5070505 2.7610178 9.4025688
6.7561841 2.8502696 9.4138861
7.0252018 2.9154086 9.4765739
7.3576469 2.9701359 9.5956755
1.4375767 3.1288478 9.482337
1.5275116 3.1430564 9.3395138
7.1498938 3.0366542 9.3585176
7.3466811 3.0873632 9.3994303
7.656497 3.1745954 9.451889
7.9213815 3.2518399 9.4924374
8.1883812 3.2959709 9.5878077
1.4579722 3.3391469 9.5494928
1.5739588 3.4780009 9.4232388
7.9178367 3.3466642 9.3370218
8.2743349 3.4083354 9.4599199
8.5515213 3.5330243 9.4444313
1.6337311 3.7374728 9.4485083
8.3678999 3.8263359 9.3155565
8.538929 3.7107582 9.4644032
1.7230995 4.0197883 9.4355125
1.825327 4.187191 9.3458776
8.2988844 4.0762029 9.4386091
8.467144 3.9606426 9.5833778
1.7613517 4.3599734 9.5353918
1.8631957 4.4173822 9.3935194
8.0617685 4.4065294 9.3855076
8.1953669 4.345109 9.5277853
1.782773 4.5211468 9.5772238
1.9081789 4.6644883 9.4374552
7.788928 4.7799349 9.3183727
7.9458365 4.6721435 9.453351
8.1135988 4.5172958 9.5619812
2.0055234 4.9701228 9.4223948
7.7387738 4.9648228 9.410778
7.862258 4.8719306 9.509738
2.0494227 5.2249579 9.4718475
2.1509478 5.3230915 9.3500853
7.4686337 5.3188162 9.3301468
7.6127548 5.2420597 9.4741745
2.0877399 5.4289112 9.5061312
2.1556594 5.5583096 9.4553165
7.3949313 5.5370493 9.4177656
7.5361047 5.4562993 9.5538321
2.219837 5.8362951 9.4821548
7.1474152 5.9053664 9.3835087
7.3085032 5.7866998 9.5148697
2.3115077 6.1376057 9.4744577
2.4966199 6.2601666 9.3274422
6.873981 6.2823901 9.318758
7.0146308 6.1733761 9.4285831
7.2138858 6.0307498 9.5948114
2.3467226 6.3602314 9.5639629
2.5640337 6.3878479 9.4836807
2.8492165 6.4781137 9.4665546
3.1325128 6.5483403 9.4177866
6.8188162 6.4982548 9.4316616
6.9412327 6.4261346 9.54776
3.1561422 6.6226177 9.5254564
3.4326818 6.6994519 9.4913797
3.7448044 6.7937398 9.4652748
4.0267119 6.8433552 9.3836508
4.2287922 6.8830566 9.331893
6.5474629 6.8740306 9.368865
6.7285256 6.7214131 9.4991789
4.0756845 6.9392409 9.5119877
4.3525181 7.0033474 9.456953
4.6324248 7.1142306 9.4765434
4.8816519 7.123332 9.3476067
6.4901471 7.0330043 9.4273243
6.633234 6.978723 9.5900736
4.734601 7.2164321 9.5844946
4.9682174 7.2610154 9.5225153
5.2398925 7.3150344 9.4539843
5.528758 7.4216332 9.4614019
5.8083944 7.4570541 9.3579063
6.2346268 7.4042578 9.3838749
6.3511968 7.3081808 9.4697361
5.6445332 7.5364289 9.5820808
5.8200512 7.5540061 9.5095148
6.1470418 7.6182566 9.5122747
4.3281398 2.2895443 9.7460451
5.8289404 2.2883546 9.7429333
2.5488446 2.5143831 9.7563305
3.8136284 2.4273875 9.6239262
4.0281219 2.406172 9.6125717
5.9400659 2.419754 9.6000051
1.5856465 2.7133205 9.6292553
7.7018709 3.0613999 9.6630983
8.3820992 3.3149741 9.6780291
8.5896273 3.385922 9.6929455
8.7850771 3.4510121 9.7414732
1.5364051 3.8327589 9.6562643
8.6444464 3.8043804 9.7048473
8.3907585 4.1248779 9.618372
1.8045535 4.6852503 9.6198673
8.0296154 4.7629414 9.6590929
1.7715435 4.9133396 9.7844419
1.8572758 4.9350357 9.6522121
1.8882197 5.2688956 9.7612133
7.4643493 5.6551805 9.626894
2.1177332 5.8763614 9.6713171
7.1664367 6.1642308 9.6448956
2.79972 6.5855355 9.6705446
7.0535879 6.4487634 9.7343473
3.6698036 6.875226 9.6416273
6.9686227 6.6596022 9.7986431
4.5047359 7.1456819 9.6015778
6.5688291 7.1284719 9.6297369
5.453146 7.4884725 9.6141872
6.4911523 7.410666 9.7691069
5.5508652 7.5679154 9.6875439
4.0588169 2.6401312 10
4.7294722 2.6747599 10
4.9106007 2.5618234 10
5.3131099 2.5560236 10
5.4661674 2.5529213 10
5.8583226 2.596365 10
1.9417895 2.9185255 10
2.6231394 2.7829776 10
3.4221592 2.8736198 10
3.7460661 2.974411 10
3.94767 2.847173 10
4.2953229 2.8684855 10
4.69033 2.7376845 10
4.8084278 2.878674 10
5.2587309 2.8835471 10
5.6108341 2.9459102 10
5.9041824 2.8113055 10
6.1579208 2.8497195 10
1.9994128 3.1349392 10
2.143398 3.2301719 10
2.8737409 3.2773671 10
3.296087 3.098958 10
3.569499 3.056973 10
3.7309964 3.1194351 10
4.1663899 3.2104149 10
4.2511172 3.2384939 10
4.6349511 3.084796 10
5.1159821 3.0256619 10
5.6458893 3.1837485 10
5.7229528 3.2559609 10
6.1991253 3.2253385 10
6.4240942 3.0583839 10
6.7946558 3.1226945 10
1.7506665 3.4167371 10
1.952139 3.4755247 10
2.318553 3.4831643 10
2.5795584 3.390013 10
2.893327 3.511874 10
3.1133089 3.3625851 10
3.41695 3.4343729 10
3.8270531 3.485291 10
4.0618472 3.5418949 10
4.3880243 3.4057899 10
4.6194606 3.4226456 10
5.1710882 3.563473 10
5.515348 3.329051 10
6.1785645 3.5335765 10
6.5014386 3.5231183 10
6.6699119 3.44401 10
7.4095736 3.4250631 10
7.7874422 3.5682731 10
7.9658365 3.5596967 10
8.259613 3.581919 10
1.903968 3.693821 10
2.2552509 3.7938495 10
2.6505949 3.8300872 10
2.7657304 3.7658687 10
3.0926476 3.754051 10
3.816813 3.6809471 10
3.9113641 3.640795 10
4.3900042 3.734956 10
5.5209098 3.6780961 10
5.8015242 3.7939863 10
6.7531533 3.7426205 10
7.0713148 3.7090287 10
7.3842859 3.7034991 10
7.7534723 3.699039 10
7.9749813 3.6603179 10
1.9386108 4.0033998 10
2.294647 4.0675912 10
2.5766511 4.1318612 10
3.63499 3.971565 10
4.0875134 4.0534058 10
4.3105221 4.0673571 10
4.677896 4.0371938 10
4.8044729 4.056499 10
5.2124658 3.9459939 10
5.4465842 4.0297761 10
6.0106778 4.1799788 10
6.4395828 4.026113 10
6.744791 3.9960489 10
6.9751229 3.9018259 10
7.3471928 4.0739832 10
7.6164575 4.0557585 10
7.9442024 4.1162686 10
1.9220967 4.307375 10
2.2621846 4.3561077 10
2.6287284 4.3399587 10
2.9241524 4.3428736 10
4.4730873 4.3488808 10
5.2514539 4.373847 10
5.7793312 4.2008448 10
6.0843248 4.3278823 10
6.3134422 4.320477 10
6.8663616 4.3745065 10
7.0078139 4.3920588 10
7.593183 4.448576 10
7.8433461 4.2594271 10
2.1871779 4.7333498 10
2.5720334 4.7192931 10
2.9293051 4.50067 10
3.0407929 4.5000739 10
3.5380917 4.6881523 10
3.7548959 4.6109238 10
4.0646181 4.6690569 10
4.3441925 4.6916795 10
4.6496153 4.7275953 10
4.9903698 4.6758928 10
5.1700258 4.713665 10
5.5609641 4.5845771 10
5.8869953 4.7179527 10
6.1634369 4.5881262 10
6.8130851 4.772788 10
7.2507339 4.632875 10
7.8781719 4.6033053 10
2.1787801 4.843648 10
2.5284829 4.8787732 10
2.859066 4.9267378 10
3.2159381 4.8966146 10
3.4633796 4.8447242 10
4.368751 4.98246 10
4.7178564 4.9735794 10
5.0025477 4.954659 10
5.210772 4.9709482 10
5.528626 4.907331 10
5.8190789 4.903399 10
6.2553282 4.927527 10
6.3870921 4.9945931 10
6.7991333 4.9351387 10
7.0552344 4.9069338 10
7.3936458 4.9190249 10
2.218811 5.203578 10
2.4443505 5.2458401 10
3.1654789 5.2741165 10
3.5553191 5.304842 10
3.8034074 5.1782618 10
4.0524831 5.2398806 10
4.6892767 5.2478914 10
4.953753 5.2292805 10
5.2536278 5.261456 10
5.8899088 5.286551 10
6.2364669 5.2905536 10
6.5272999 5.2031279 10
6.783917 5.2837782 10
7.1435099 5.2301641 10
2.2905371 5.681026 10
2.4695237 5.4773655 10
2.9393721 5.6702461 10
3.29689 5.6876602 10
3.4409869 5.4936085 10
4.0482845 5.5392041 10
4.4947882 5.590662 10
4.6976571 5.5639138 10
4.9363379 5.4557638 10
5.2902584 5.4873791 10
5.4963889 5.550169 10
5.9382811 5.4873428 10
6.1747727 5.5529723 10
7.0024781 5.5304394 10
2.584589 5.842134 10
2.9035687 5.8860288 10
3.153784 5.9374108 10
4.3423157 5.7837057 10
4.5729089 5.9284439 10
5.0271301 5.7990193 10
5.5660629 5.8682189 10
5.9482789 5.773663 10
6.1010852 5.7143641 10
6.4592805 5.833683 10
6.731421 5.9420319 10
7.0223112 5.8590174 10
2.6315999 6.1606512 10
3.4248195 6.1718307 10
3.771445 6.0607271 10
4.3145909 6.1675739 10
4.7109408 6.1440201 10
5.5588083 6.1638083 10
5.7721291 6.1548109 10
6.1800947 6.1612349 10
6.444057 6.143527 10
6.781858 6.2926521 10
2.8096263 6.3719678 10
3.535362 6.4234371 10
3.629065 6.4746628 10
4.1096916 6.3855853 10
4.2643552 6.3866091 10
4.6004982 6.4961777 10
4.9153404 6.426301 10
5.7680368 6.4102712 10
6.125793 6.4920239 10
6.6061049 6.3709092 10
4.0274119 6.7883916 10
4.3166842 6.74086 10
4.6612096 6.648685 10
4.864367 6.8764119 10
5.5032172 6.7249703 10
5.7962389 6.6833901 10
6.093431 6.7939777 10
6.4374971 6.6218605 10
4.6196942 7.0203443 10
4.8943977 7.0575156 10
5.3689108 7.181602 10
5.436655 7.0701318 10
5.9290271 7.037096 10
6.0275178 7.1637201 10
5.8362188 7.2001901 10
6.0900569 7.2070861 10
