# .PCD v0.7 - Point Cloud Data file format
VERSION 0.7
FIELDS x y z
SIZE 4 4 4
TYPE F F F
COUNT 1 1 1
WIDTH 1594
HEIGHT 1
VIEWPOINT 0 0 0 1 0 0 0
POINTS 1594
DATA ascii
7.4748306 8.8704815 0.393693
6.0801067 4.2895446 3.0043972
8.5940666 9.8844776 2.759769
0.23602916 4.6520319 6.2750006
5.6669068 3.7978244 0.95863366
5.068583 1.0729457 3.4437087
6.1405048 8.1256065 3.4283457
8.6790342 0.54682124 9.5622625
1.3561547 7.6751556 4.7761812
3.0778906 3.83711 3.9290168
5.5140882 1.3119409 2.7994981
5.9077811 7.3920469 7.0890427
8.912178 5.9861145 6.9735198
1.6719472 6.2221437 1.6255519
7.9469481 1.8890507 5.4233766
8.9055815 6.957634 6.4963222
2.3492899 3.0981386 4.6219292
5.7776356 1.7771726 5.1687503
5.3398981 3.1333275 2.8439057
0.1160787 6.2112179 6.681016
4.0450954 1.7253059 7.9929566
6.844594 7.6330872 5.3850036
3.9336367 6.5452652 1.3711184
0.90715659 8.2172127 7.5932622
2.5327084 6.1641603 9.4823132
7.9560847 5.0697417 6.4399471
4.4524069 7.4190311 9.5380859
9.0743361 3.1966672 1.3152578
4.2430859 8.5365658 4.448585
7.0869918 8.6526432 0.65980303
3.7680075 2.6977394 2.3851089
1.7609643 9.5423326 0.018196046
7.145968 3.4759698 6.5634613
8.517086 4.3831263 4.780674
6.1103487 6.9158344 0.94483423
5.5926619 4.8719196 6.014576
2.0326087 9.3243265 3.4336071
1.570694 8.3986626 6.6302748
2.885952 2.641748 5.1668396
7.334537 9.7287397 3.8194833
7.9943399 3.496747 6.5172224
0.37944913 5.2577114 6.0595555
0.39764518 2.4036794 9.5355253
6.9611068 0.92076623 3.9186513
1.7417805 7.0311155 0.83448613
2.6866148 2.6237769 5.7064056
8.70119 4.6563854 5.0307322
2.1347978 6.2270794 3.429394
8.7650719 9.1130314 6.0711422
3.9319115 6.4475684 5.799881
7.7513952 4.4419088 9.296629
4.2686172 4.8213577 4.5543399
0.32817289 5.2190027 6.9580197
9.863698 2.1801095 7.8787856
3.7823496 3.92189 4.9099007
4.6168356 6.6085048 7.5336781
0.32324129 5.3096952 2.190063
5.3539729 7.4444933 8.4171429
8.7833672 6.2095652 7.5301738
4.8545089 0.14147696 3.9777424
0.65439051 7.8928714 8.419651
9.9510193 2.161489 3.2410088
4.5053592 2.4896619 8.4600124
1.4633787 2.3533602 0.6401214
9.342164 6.1357098 4.5620112
4.2520652 0.75254524 1.1705163
1.7857426 1.0757865 6.4802117
3.9758058 6.42976 3.9247048
2.3929482 5.2131267 0.13426995
9.9231224 0.067635767 0.27574691
3.9008646 0.72202629 8.1686192
2.3205159 0.67304546 0.33010781
5.5615244 5.1784043 2.8197696
4.0215368 6.6417832 5.17313
4.6616583 5.9839478 1.3088394
9.22367 0.23601267 2.0613847
0.39418578 2.0217555 3.1371713
6.8743973 5.9975615 9.5669308
0.79910207 8.3905096 4.7800579
0.93337202 8.313632 4.8476934
1.2091188 2.2144966 5.5697198
9.377738 4.5350122 6.2427654
9.7078457 0.096537098 1.4211696
2.5276151 4.1180735 8.062953
7.7007446 8.7797318 4.0469003
9.0095844 8.0034008 4.2829127
1.0709693 8.3975868 6.3046684
4.2081409 5.2719841 2.3022296
3.7750716 6.0710864 0.69273913
8.5551291 7.0044584 9.0063705
3.4028223 8.2135773 1.2208674
8.9725418 7.5913148 5.7558799
5.2153068 7.2991605 5.852417
6.6364765 9.8267756 9.9704905
4.6994295 7.5275207 8.7502222
8.7463303 6.5371056 6.7536235
3.029243 7.6080747 5.1512103
9.3339119 1.8162153 0.42319462
1.6361409 5.5912867 6.4942808
2.3288801 4.1464157 3.4987392
1.3352509 7.5492382 1.7123165
2.5561185 6.52178 9.3036318
8.3119984 1.7370872 6.6027918
4.1644149 8.3735638 6.4295673
4.1349053 3.0729938 3.957088
2.8851275 1.8193235 0.49419338
9.638751 4.8485665 8.1022682
4.7899613 4.182478 9.9184837
5.2131557 5.8186193 5.5097699
1.7074369 8.1474991 9.6561852
5.2061758 9.4827499 7.2054238
6.9184928 2.038868 3.7272036
6.2221246 0.35086614 5.4642911
2.8249164 4.5152812 3.8378549
9.2544832 8.6501865 6.9108486
3.2115717 1.5353141 8.7301722
3.705765 1.1740651 3.5787387
1.808033 5.9640265 7.7612162
1.7265162 1.1771824 3.5798354
7.2362857 2.8846192 1.7273343
6.8924713 8.0907955 1.2100841
4.0978951 5.0092888 3.2489519
7.8250985 1.231413 3.5998182
3.2893894 4.0563293 8.115099
7.127244 3.3108127 6.7652855
4.0380926 6.5223842 8.3006001
2.7682643 0.22814952 9.4746647
6.347003 2.0361826 5.4386911
4.1082196 3.7626987 6.6158733
7.688055 0.99898487 9.500493
9.4153891 7.8914566 7.5912886
0.62547314 1.9893513 2.6005771
3.8744254 9.8144493 3.83199
7.4742436 3.1038389 7.8883195
5.5893426 0.23108281 1.1991323
2.3546286 4.2691751 7.7215166
0.6552282 7.0374398 7.9496665
0.12989306 3.3844428 9.9858484
5.5685844 7.4926624 3.7485478
2.184458 5.180717 4.7475324
1.6849511 4.5961061 2.6389887
9.2762394 5.2215791 4.6283398
1.8768169 9.0960045 4.4427896
5.708807 6.5702481 7.546628
3.5971265 2.1595907 7.7777109
4.7962589 4.5142193 2.0468864
2.5177755 5.1694479 9.0843258
0.46744183 5.2993402 2.4687691
0.45329064 0.86792481 9.9614315
4.2018385 3.0523827 5.142149
8.9493713 4.7373338 9.7382555
1.5883595 4.0135736 4.9598341
6.2166996 5.8903909 4.0558386
0.6594888 1.5991976 0.62608665
8.2061176 5.1963243 2.7856774
5.9838285 9.9925833 7.2998962
8.030714 2.5103588 2.4693439
7.1150403 2.9778004 7.7686844
9.5838099 3.4310911 8.6366091
9.5452414 7.6329288 1.6889923
4.6873899 6.5823002 6.4263258
4.4256444 8.17066 0.4398998
9.385479 4.3873587 6.3302903
3.4413173 5.0468473 7.9294882
4.0674043 3.2529645 3.1258125
6.8530817 9.2367926 3.1183956
4.1529784 7.2675076 5.6287546
6.6223221 4.3825479 8.606555
4.3910069 3.9663579 2.0376458
3.027616 3.5115991 9.6705751
4.7166085 8.1989889 6.2528753
1.1429346 2.6246336 4.4235349
1.5828345 2.0101123 8.810894
7.9131246 5.4514303 3.8577414
5.8426132 9.5188341 7.1107059
8.9684258 6.3719158 6.3474989
2.0868208 0.52489406 3.6150064
7.7155752 7.1472163 7.9975548
6.3221302 1.5382231 1.9639124
8.3597755 4.5658393 5.4755116
8.0303507 9.2824478 3.6745002
4.283226 0.42538244 6.2991338
8.7067614 2.0082169 8.3092461
7.5176549 9.9213419 3.7606764
1.375396 5.7639546 3.2795105
8.4861021 4.7323799 9.6514263
4.833601 6.8192005 0.17632034
8.4486074 4.5347757 7.3235369
6.4461617 0.85690558 8.8617601
8.4100742 9.2166815 3.4275994
3.8855858 7.2470322 2.710047
7.5600863 1.5302582 3.1354296
3.85922 0.23701924 5.1436467
2.1684666 7.754674 5.0649881
5.929143 9.1300697 0.82894254
9.2086535 7.6161718 5.5613227
8.8600798 2.4497731 2.380523
9.0363998 0.89838064 6.9152985
6.3599367 7.3445425 7.7722044
5.2216964 5.7546167 6.9888854
8.6492958 9.6402025 4.2359176
1.3593429 7.2002888 5.7661762
4.4947724 1.0595088 6.0031948
9.6384192 3.2279751 3.757869
4.7034068 9.1571178 2.887939
5.5323501 8.3657713 0.50411105
1.093672 7.2258511 2.9538844
3.474195 6.2622504 3.8522649
0.38949367 2.6221874 1.1968075
8.1616983 7.8438845 6.9514246
5.1505833 6.4931798 6.5916271
9.3865004 7.8525229 3.7919159
5.1526766 2.3472955 4.8514242
1.155872 1.9857144 8.0793991
4.9137411 6.6891217 7.2365179
7.8016801 2.2214713 5.6022887
8.3057909 3.3151433 2.8281398
1.2596751 6.7893381 9.0903902
5.1119399 7.1788316 1.7125779
6.3087473 5.3405294 9.5564623
3.2601719 0.49111322 6.0496421
9.851799 9.877614 3.9021645
3.6437144 5.0302911 6.2494602
8.4951391 6.1861629 8.2351742
6.5745392 1.0999041 4.9242964
3.8110564 8.9015846 7.1457672
9.4133453 7.207375 0.46091053
2.2414846 8.4670506 7.2502489
1.3318752 3.57899 4.429081
3.0444529 9.8877373 9.7696104
2.600915 3.1479096 0.26072371
8.6505566 2.9997087 0.13833793
2.5527213 6.6434236 5.1686292
8.8021812 5.1385622 1.354792
7.0373554 1.7131009 2.4546959
1.9616513 5.5241575 1.35628
9.107419 4.9375019 8.5636549
9.5683298 7.1789865 7.0307055
6.8185782 8.5108624 0.60969526
1.2476586 1.555315 0.49743301
1.017269 4.15623 3.6453426
1.2779927 2.8067865 6.645051
1.4163306 5.3595076 3.2884743
6.5849595 4.1616888 8.4270372
7.9397516 1.1990441 0.14013766
0.39444777 3.1606956 5.6642952
1.7507278 2.2681141 0.60179698
0.31438267 1.8364432 7.7807837
7.3450875 8.6550217 6.291646
7.954783 9.9026794 7.846961
8.4522161 0.91994894 2.0031908
2.0975587 2.1979418 4.8099775
8.74261 3.6142726 0.16948518
2.0310845 0.19923213 4.3311739
0.45812115 8.1389837 5.5302181
0.59825879 8.533432 8.6909132
6.2625532 0.28415942 0.95902765
6.8643503 0.59854209 2.795471
4.6451344 7.9436297 1.4504921
0.9367801 5.8984132 1.3531721
8.783741 4.3506289 2.2731211
0.78693175 6.4481878 4.4710627
5.596909 5.1907973 8.0853348
5.7663941 7.2218819 8.2845669
0.097568259 7.6800032 6.4235506
5.6277866 8.2782621 4.9569826
4.3186998 4.5408158 5.2411418
5.2777271 1.4051661 5.839684
8.0731983 6.0503006 3.7833142
9.5236902 6.9870806 9.6817265
0.87686253 5.7708216 4.0323558
3.1499836 6.5577531 0.48054349
7.6210461 2.1546624 5.6713409
5.7063813 7.9210567 2.8932233
3.9909484 8.0186253 0.57322627
0.4144997 3.6464114 8.8514881
5.3714824 7.9651113 3.3923039
0.6126247 3.2428386 4.7974701
6.4523087 1.3160371 0.84777033
0.23562311 0.83972752 7.8348513
9.9173498 1.71659 3.6056724
3.9497061 4.8665733 0.16342589
4.4302492 2.4876199 2.3180885
0.10159059 8.1940012 0.23914528
2.9948137 2.1849499 8.2577705
3.5680401 2.5994494 1.9041818
2.4195282 7.970932 9.8692932
5.811832 8.5835562 3.1121316
0.60930187 5.0358658 4.4281683
1.4570723 5.2714891 5.2678962
9.2919235 5.188839 6.9844861
2.8975959 9.138545 1.8510599
3.0610216 3.5687945 4.3386798
5.3791099 3.6703849 2.532681
5.6182551 6.6651988 4.7176309
3.8760257 0.23323858 7.3170805
5.7802076 2.6527667 5.288012
5.6495004 8.4645987 3.8715692
8.7616329 9.0739002 8.9074345
3.189801 0.53097296 4.1789236
8.4576969 9.822896 9.3677626
5.442183 2.7204919 8.5063066
7.2932434 5.7815132 2.0751014
1.631923 1.1606239 5.7454863
4.1646042 6.7788792 2.4106848
8.8822346 0.65490508 2.6439235
6.1993151 6.4351125 5.29669
1.4873272 2.0846133 3.7612889
5.3588963 0.84624553 2.8351898
4.2663307 4.0360465 3.3661625
8.4452543 2.4937437 3.1890588
7.8130159 7.9359269 5.9095507
6.3193231 5.2291703 1.6910646
8.3944244 6.861093 2.8516886
4.1399107 1.0256969 9.6305676
6.5505953 9.9079313 0.28547275
9.194519 6.1072464 6.7205853
4.491209 7.5945735 8.8051987
8.2524977 2.9534698 9.6514435
1.0876874 7.2198005 3.6874905
4.4538503 5.6650543 6.1812344
7.6429086 3.4780703 4.1171608
3.5524597 9.7973928 9.3463316
5.2435246 8.1918182 6.2074237
8.0952129 2.3317282 7.2331209
7.7257805 8.8823233 7.1410522
8.0112534 8.0768423 3.2482991
4.7318387 2.5680509 0.84287274
3.5370374 0.82054877 3.7963424
3.1884813 1.9082361 1.0161427
6.8759723 6.3620858 6.6811967
3.0572062 4.0049949 0.15926728
7.1743674 7.5574546 9.9566612
6.5206985 2.8009787 8.1484785
2.7281225 0.89619154 0.48020664
9.9612436 8.6219721 9.3625298
7.1022959 6.633225 7.4393725
0.350595 1.3650637 0.0074234698
1.1934676 4.902101 0.82797223
4.98981 8.0905828 2.7362084
6.0059528 4.9665546 9.0982943
2.6871495 8.0237608 3.1032896
2.8464172 5.1981282 0.66074419
2.8030777 1.7188268 3.4617231
0.95155609 4.4469495 4.3579144
1.4317627 4.4081926 2.9798865
0.79429293 1.5104887 9.6131115
8.2336655 1.8610836 0.97817534
8.2410889 3.0545516 5.8802767
9.0690613 8.0443611 3.9708588
1.8052696 4.0503139 8.9374132
0.9035641 6.737464 6.961174
4.0068536 9.5838814 2.1593025
4.6675978 2.3869588 3.878129
8.1293211 3.3385148 8.325079
2.4872353 4.7702775 2.7332711
5.4671221 5.5645704 4.2437596
5.0802336 3.7982359 6.1048436
6.0584087 2.0393248 9.1593952
1.9386852 1.1083858 7.2037563
5.9095435 2.9136553 1.2540705
4.8469572 3.8172195 7.9915342
1.8081312 7.8240733 7.5754156
3.9674335 2.4916711 9.9623747
7.8455629 0.62099183 3.300889
6.1706409 3.1082273 8.071167
8.9039125 8.5753498 3.6357374
3.1476717 3.6555827 7.4339728
9.2525158 9.7139912 9.4732981
8.4119101 1.6526766 0.58168387
5.6156664 7.5622206 3.4953392
6.8697367 2.4091775 7.3125591
4.8612719 4.217309 5.136632
2.4366875 8.184742 7.6283031
2.3990617 6.0303049 8.2492943
5.6999512 2.2009466 1.357522
3.7711177 1.1048586 9.9328718
7.4068551 4.2525306 3.5884538
4.8408279 3.5050461 3.3024454
4.3141265 1.9169563 4.955122
4.8958101 7.5326228 2.5173426
8.3911495 4.40236 4.9265203
5.7037077 9.2636318 9.1438284
0.84033996 1.7003188 7.3285718
8.4686432 4.0993805 3.3588767
6.7179375 9.7993317 5.5598235
8.0754595 3.5704491 6.6646819
8.0083313 0.97730422 0.91721267
1.5967847 5.8181324 4.4222589
4.89923 0.13225868 6.3392153
9.854352 5.028069 3.8718379
2.3716948 3.4192181 8.2741976
7.2982149 9.1229258 7.5378294
6.4420438 9.9632664 9.2381477
3.7706156 8.4319096 3.3375285
7.1294923 5.1498466 3.1368599
2.6893158 3.2253063 6.7073088
9.3539982 1.233637 7.6846132
0.27121031 2.8304217 3.5027459
4.693469 7.7296519 3.6350045
1.0326841 7.5840039 8.6630735
4.9045219 9.955698 2.0822911
3.1787195 7.2539134 1.2052174
0.71654868 3.6959574 1.1684834
9.9546967 7.4665728 9.6003923
3.2922254 4.5960646 4.7502389
6.4290853 7.2853804 7.9755449
3.1363943 6.6393781 9.2091827
0.82100779 6.9105883 2.0396037
4.3237538 1.6040574 9.7692556
7.9587579 2.6367414 7.3532591
6.6218309 7.5412631 7.3089576
8.7041225 0.71998286 4.562871
9.9093399 1.4365315 8.2588282
1.0778234 1.3912283 5.7254009
0.67821568 4.6834536 0.32146585
5.4284544 1.1125388 7.6068459
3.4039996 4.2489333 4.2462244
2.6131816 5.0699415 1.1568125
4.6527853 9.3936939 2.76087
4.4220405 7.3524528 5.3976111
1.7752995 3.9742839 2.9388747
9.0842571 2.6784065 3.6588573
3.6471286 2.5877466 5.0953889
1.905957 3.66557 6.4866171
7.6313581 4.3437858 1.1700709
7.9528236 9.7722397 2.2826097
5.5596695 3.1762397 6.5315433
9.8058949 5.7894211 1.6014839
0.9627068 0.44220608 0.99517858
3.7235765 4.8642464 8.3476315
9.1211882 6.6395464 2.3219154
2.0600626 5.7238035 5.0003219
5.7189202 9.3709316 7.588069
0.81430918 1.2768891 1.2536385
7.3009262 8.908247 5.5974245
8.4709969 6.8610711 5.3696642
0.75360709 2.4207408 8.5459042
7.2851505 2.226635 4.3353252
8.8866339 3.189342 4.7775311
9.8818121 6.9129186 9.641777
8.2294445 6.0341067 6.2813234
0.55135918 8.0941696 2.0051272
5.551681 3.8130898 1.3760593
3.1397498 4.627399 2.6529484
4.3933883 1.9283257 1.5611954
9.9908123 0.39932299 8.422266
5.360477 1.1529301 0.84300703
3.9063809 8.4380798 3.0696421
8.2417059 7.3247142 6.2589841
3.0192366 7.2065268 3.1719029
2.6610141 5.4359713 9.2060099
8.942338 5.98733 7.3001795
0.94746506 1.5390111 1.1132692
2.3235245 4.6787605 5.7406683
4.9764729 9.0721493 7.6689939
6.5376682 9.0629616 8.0683165
4.9599342 4.4234381 9.2212467
5.8029413 8.3298197 7.6593266
8.8725834 6.5715246 4.9840412
5.131568 9.5907612 2.1905682
8.3034706 2.2517757 7.6265388
7.5094805 1.1941137 3.613869
4.80966 2.1415787 5.1528797
5.9229288 4.4651031 9.8316402
1.6635972 9.441576 8.9037895
9.3325911 5.9792442 7.9667516
7.400908 0.93917847 2.3901896
6.6221547 6.7421198 0.72000897
4.2814817 5.6147032 7.2915339
9.265523 0.74627137 6.8822956
1.4560912 9.0497417 9.1340714
9.0826302 6.5592222 0.32818514
2.6964989 1.3688824 2.469764
7.8493786 7.291811 6.9348669
7.6810193 8.9554081 6.3764429
6.5848093 8.2880001 2.3556871
4.5515604 5.6889076 3.2948656
6.9417505 2.3110619 0.036985483
7.6617594 6.5925436 5.6516891
4.9532933 5.8580666 6.3979607
1.8355888 7.314158 5.4477024
0.96966022 6.3967876 2.0069251
1.2978454 9.0932865 3.3758073
3.7676094 6.9426656 0.66761881
0.7024765 4.6236849 9.6230278
7.0789194 1.2084941 7.9110265
9.4346066 5.7600546 3.5999341
2.7294722 2.7018051 5.9109955
2.7664578 0.36356455 2.5035396
8.4181471 5.3168578 8.3616056
4.8161073 7.1524467 5.6757641
0.26380983 8.1221066 2.0725517
2.270735 9.4199524 1.1658385
5.6465425 3.1875615 8.1085033
6.3141613 3.890038 2.7321887
5.9371891 0.9689576 3.9406826
3.8482153 0.40356427 9.700738
7.4481492 3.1330366 2.4025426
3.3591452 5.8994942 2.7661073
5.8626847 4.3176408 8.0829649
4.2242908 9.1337481 5.2354116
9.9000549 9.3975582 3.3575187
1.9726068 1.668293 2.7774711
3.1384454 7.3148355 5.9650326
1.2469492 3.6289968 9.8550711
3.9791379 9.566185 0.82402837
7.9198208 3.4144008 1.2275927
7.6205583 0.8625499 4.3606291
0.023100659 4.2216949 0.26012328
2.7892079 0.084379643 4.5777645
0.87217301 4.3086705 3.7115123
6.107585 4.2087255 3.1090703
9.4651041 6.1813326 4.7773633
2.2425745 9.3197775 2.0921988
8.2076073 0.56672668 5.7211952
8.0626783 4.5458646 5.2873807
8.8867064 2.4656849 8.7017813
0.11429878 0.086243041 9.564332
4.4749279 0.10934371 3.7860265
4.7350512 2.8985515 3.8704062
9.3128147 3.7707245 8.1790771
3.0243278 9.8783092 2.3878021
6.1333981 9.3434134 8.5691347
0.91076112 1.5859872 7.8889122
3.0029597 9.7935944 8.4556379
8.7241554 7.8562717 3.001503
4.0115366 6.7429781 5.4671884
2.7133181 6.8572769 5.553431
2.2776496 1.3322048 5.662775
6.0636759 6.067256 8.561326
9.934083 5.3800716 2.332051
8.1131592 8.4043989 2.2103605
0.50096118 4.537797 1.5537733
9.0700951 5.4485579 3.1397605
6.9590073 8.4515181 2.9333549
5.4146461 7.1756735 0.7896269
8.4161491 1.1872096 7.5326052
3.883337 3.9005277 4.3898821
9.4367685 6.1781778 5.7220869
5.0995426 2.2418535 1.7893429
3.6608696 2.1759357 7.169414
5.9929204 0.2890949 5.5738134
8.2032814 0.79005611 0.11161008
9.7570543 9.8601513 5.5601683
2.8968146 6.8191595 4.0116858
5.8301692 2.2338052 1.1873591
6.6197968 0.64995414 2.3745687
4.1524019 4.5332913 6.2750964
8.542284 3.9700594 2.4532738
4.2643704 9.069603 4.6951275
6.0537138 2.7304721 6.8710632
3.2231278 8.7233925 7.1601582
8.7969408 6.9266729 7.9502144
8.9085512 6.6837273 7.8103657
4.4687195 9.5805426 4.6295252
8.4804049 5.4107118 6.8633299
9.6677647 2.0305083 7.5132842
2.0423329 6.18291 2.0465753
8.3174295 4.7251935 6.0166349
0.77070296 8.9895639 5.086237
5.4658298 5.0432777 7.8167095
2.3368933 8.2664051 6.540102
9.4970512 7.0633464 3.4667752
7.4472656 5.9718981 0.15050256
5.2576308 0.44061714 9.7310448
9.8871555 8.9210224 5.1417565
6.7504859 8.5887861 7.1722651
4.2637701 0.63111907 3.3551745
6.3103456 8.9485483 8.080368
2.3269801 9.7192516 7.069932
7.4132175 5.1850815 2.1132102
5.2299266 7.521975 0.37961587
1.7700286 7.0190263 7.4429626
5.236804 4.4662914 3.4148602
5.3873062 9.7239227 3.8554776
5.118351 9.6110783 2.7765
0.26010749 6.3615646 1.3652861
7.4323726 0.62533408 1.9964052
0.78754699 6.9356794 0.94495356
8.8679152 9.2626591 0.66420496
5.9378481 6.6758771 5.8492861
8.0510578 1.9058038 3.3712614
8.4306736 3.6758325 0.39028746
5.8736367 8.9126358 4.8565788
9.288497 4.299942 4.5805016
3.1439748 9.418293 4.1915793
5.9204745 9.678401 0.55314368
7.2857609 7.1107726 1.1784778
9.2821655 7.8983202 8.1141577
0.22711959 6.7662354 7.3768167
0.89132452 2.7040834 4.0526934
6.7406111 0.75514138 5.9584975
0.11187239 9.1858158 9.6343298
0.50215983 5.0594521 8.5469656
5.3587389 4.3479495 2.8469083
9.9392395 7.4919243 2.2652013
4.1308193 3.4123988 1.9436021
4.6839628 0.6981594 9.0543756
5.8624411 9.9803257 6.9526954
3.9765978 0.207445 3.7189305
1.3534145 1.0987695 6.4230137
5.4061079 7.8393803 7.1781549
1.3646055 7.9512529 6.3639708
0.9989354 8.453413 1.4234227
9.5459013 3.8121514 5.7713718
2.3928096 3.7513912 3.2632959
4.658011 7.8822107 6.6756945
6.601613 2.566174 7.3738537
5.6559877 8.4286146 7.3541794
2.6086831 2.4052124 7.5616245
6.3276138 3.7586269 8.6603937
2.7506275 9.1647348 6.4997745
9.9287825 0.52934062 4.4510274
6.2927532 1.5282761 2.9044402
7.716176 1.0741774 6.7165918
3.4875479 3.4669871 0.46798277
6.7508435 8.1249981 8.350193
3.4265385 4.7266107 0.91636741
0.80039233 0.38259894 9.3449821
8.1545715 2.991282 1.7501945
5.7161961 9.3188963 5.5088215
4.3765898 2.0695231 4.6735568
0.87636435 1.9983058 5.2028971
5.3273916 8.2910595 6.7311735
8.2318316 6.0072351 7.8053513
4.9484234 9.4947824 1.2723377
5.4164057 6.2456269 9.397336
3.7665997 9.6721649 4.1239462
4.6829672 0.47255728 4.5065455
4.0279489 8.6271296 7.4978275
5.7781434 4.3433247 6.8167233
1.2869654 8.7199154 8.8862467
5.9605217 9.5962791 0.88455224
1.1634192 4.9236708 9.1756115
7.8945923 3.1555028 5.1828461
5.6999435 8.1039257 4.677629
6.9722805 3.5203319 0.92325592
6.3696165 7.286932 0.5954209
0.49356306 1.9698987 1.0679781
5.0001087 5.997848 9.6951075
2.4979358 1.7759913 4.0384321
9.3146591 3.0629566 2.758347
8.2009048 9.0234785 2.3546264
9.0854578 0.18689767 7.2782974
8.2610693 8.0814905 0.43380025
3.4439154 3.7814336 8.5377264
8.1215448 0.75371456 2.0580583
9.0448008 7.1233315 9.3449898
9.6402216 7.6168942 1.3148886
0.70819944 2.6170027 7.3127365
0.40330663 5.1149387 9.088728
4.4417386 4.4295974 2.1516843
7.2000861 2.6305029 1.1751626
9.5547123 1.7159604 1.3620603
6.8330097 9.9770298 9.4435511
7.2668099 3.4209445 3.2249842
5.8045363 1.5424893 3.9786985
7.8625946 0.58728957 1.1020298
7.2075849 0.22751091 8.7189236
8.5224733 0.93571037 1.3359267
5.8352094 1.339017 6.4508653
4.9239368 5.780756 0.88046241
7.0756216 2.9808416 3.5109651
8.2507839 2.5355542 5.2269258
9.6128445 9.3685637 5.2039552
9.0563946 6.6353745 8.6248989
2.2813785 2.4399107 0.16738871
6.2600775 0.3025054 0.75467831
7.3621073 7.5100899 0.98218924
6.0810308 6.0325632 1.9178997
7.4169579 1.8677729 3.2569168
3.8678226 6.7917104 9.037672
4.7482853 3.867331 2.0185142
8.2592497 2.1181149 4.5540686
3.4861755 1.7309589 3.9226322
8.6901302 0.78735352 0.55800664
7.3150301 3.068732 2.9979172
7.482419 9.3288097 3.3004227
8.2370968 6.6909165 0.81051284
9.219286 2.7719471 6.8430762
1.1371861 0.18890482 8.7108498
4.3941026 4.0567274 5.5025587
3.4317751 8.8050127 9.3698902
5.4502892 7.0642624 1.4880052
0.0043575838 0.55043817 3.2189643
3.92699 9.2405691 4.0063181
4.4849968 6.5555992 7.0750499
7.482914 4.0380173 6.4038587
0.7833367 2.2751145 3.0947752
1.5938495 1.494401 5.8667226
8.4369259 2.6315868 6.0556269
7.1477747 7.0256896 0.11235457
2.6503339 0.45746449 8.917367
2.0202241 5.9077539 5.9816294
3.5082295 5.9121113 6.5320678
6.7271938 9.8391018 5.7726364
0.73351145 4.3240981 2.3282351
7.8085613 1.807012 6.3662529
4.2124205 2.5903487 8.641367
7.3071952 4.1841979 0.13576818
3.1739175 2.6211238 2.7673552
9.2295446 9.768898 9.7930441
9.3418989 2.4192324 0.25050905
8.2592659 4.4394569 6.1582623
4.2408957 7.9476862 2.070374
0.77296352 4.67488 1.9094754
6.5455999 5.4083915 6.2335734
8.8738356 3.2169523 8.0405855
5.2400875 7.4293728 0.63093394
3.8814549 4.736568 4.8151321
4.0172234 7.9104853 7.4362559
6.7845778 7.1400304 7.2051544
6.5776229 6.4819293 9.6243868
6.8281317 4.7411962 4.0638437
2.9863944 8.9820919 2.0115294
5.0567684 9.7550554 6.686409
6.9662437 6.3006549 2.0948007
3.1998177 5.17449 5.3117533
1.2404027 0.41457787 2.7411258
1.8713367 4.2960329 7.4776936
6.6864686 8.3132563 5.3881793
4.1227241 5.0978336 2.5282097
1.3278785 1.6754568 9.0101395
0.95226526 8.5035887 3.7513351
5.0161085 1.4899828 2.7334266
7.027638 6.546752 2.488482
3.7140477 3.5129955 8.7891369
5.8088484 6.7128129 3.9636273
1.1206014 7.9532156 4.3782053
3.8617272 9.8245525 8.6742382
1.339421 6.5110211 6.9874935
6.7276001 0.63374543 2.0853279
9.2558098 1.961624 3.7607846
8.2659492 2.9138894 2.2643731
2.0172842 7.9299979 3.7543561
4.750711 4.9576359 0.30110765
7.239193 8.6716833 3.8141034
6.0283303 4.4805317 0.52691627
9.9919577 5.6011333 8.4801321
4.370163 9.4628611 8.3046846
3.0444007 0.80228162 4.8157058
0.031894576 7.5298824 5.4494514
2.1172225 6.7856922 7.4110751
5.8780074 5.051641 0.32496437
8.1423798 7.0689249 8.2549629
1.8967364 1.8196361 3.2125986
2.197844 9.0588293 1.8842822
6.0119476 5.0871592 6.3648138
6.5388637 5.0791168 1.9659474
5.0189953 9.4492798 1.4288081
3.3236802 2.4936802 2.2310898
8.1393852 2.5255749 9.760972
3.5888367 4.6427975 6.5466638
0.99991196 0.52080446 1.5983045
1.3248763 8.6631851 8.6672297
9.5798388 0.55992109 0.4868657
2.7924371 2.7577651 9.5456944
4.6767192 8.7697124 4.632854
1.0415335 5.3085756 9.7119713
3.0074811 0.32757136 9.1612511
4.4362888 3.6512516 1.6549308
6.6673784 1.7906373 4.1805058
6.4283504 5.3794742 8.8233032
2.9750137 6.3793859 9.3441076
4.5733185 7.7042623 8.0072918
3.2405481 7.2841015 8.5672131
3.7274137 0.076538183 1.3249785
3.2731085 4.7532578 0.094690681
7.9059625 5.7947912 5.4032664
7.6179338 8.8022718 5.7308378
6.7791843 3.2385612 9.3820896
8.4341154 9.9059401 1.1727266
2.6146209 6.3342905 6.5522008
1.4379239 9.3093042 2.9315867
0.78203148 3.882623 0.6358493
8.7893238 7.1231709 7.9199505
7.3565369 0.85058463 7.9964881
8.6815157 4.123693 2.7497461
8.776206 2.0296559 8.5445366
4.1794724 9.6475897 7.3468089
9.9103107 6.426774 0.58537012
9.2924004 4.860889 0.49131006
0.4651266 7.4755101 6.8256001
7.0173273 8.913434 6.1349053
9.9489136 9.6954651 0.017527835
0.58476359 8.4847889 7.1406989
8.504714 5.8413262 7.9912834
6.5012026 4.5228419 2.1149764
9.250948 3.2990482 4.1446323
7.7954855 7.4785209 3.792222
5.1422949 7.3888311 0.21899612
5.7276649 6.6812315 5.079885
6.2189746 7.146358 2.5553954
3.0445752 4.1636853 1.4688294
9.1794796 4.1125994 1.1642947
9.1970081 4.6973634 9.6490841
6.337707 3.2020772 5.4904103
4.32899 9.7032795 0.013252306
6.4439669 8.9542284 3.3123004
0.58859915 6.7497134 0.79082125
4.3808212 1.8920081 8.1796532
4.5998173 7.6196723 4.8608837
9.6797028 3.8386474 2.0072417
2.2350981 6.8832226 6.170927
3.7039275 6.0627027 0.28352672
4.8682222 5.2597113 4.9808898
4.5173063 1.5974176 8.1829672
0.0077165663 5.9264078 7.8862467
0.020968873 2.3703744 6.8404746
3.3332694 2.9589736 3.5901883
4.1240907 7.3397946 5.4821963
2.3037431 1.9396124 3.1018689
7.1646266 1.619315 6.9405165
9.1718683 3.854413 3.8237391
5.3427958 7.5583405 9.8864422
5.6263227 2.4265625 5.1461525
0.60721254 6.9438691 6.7435703
8.7901793 6.9515853 2.6699781
6.6764264 6.9725542 5.0403523
3.516901 0.3058235 7.9993258
7.107089 4.429914 5.3391213
2.5892854 6.7336569 7.2787333
5.6911545 3.8982842 8.8980484
2.631671 3.070153 2.7524617
6.4554095 8.4129486 0.31080204
6.3418512 4.0392714 2.7373648
1.488004 4.6464839 9.6812334
8.2315741 3.4366634 6.6328187
0.90155244 0.11308979 3.6053729
5.941905 3.6299908 3.9111962
3.941231 0.73708004 8.3411102
9.2803516 3.3263657 5.0747676
6.5590854 9.01752 8.973052
5.4571342 1.6491908 2.0432048
8.2095957 8.1046 0.45615351
8.5203972 4.4464521 4.4954247
1.2577623 5.9344559 9.1419086
0.93899572 4.1660304 2.5785723
7.5718145 5.0675826 2.6916621
1.1771874 1.0094876 6.3216534
5.0883837 4.9507184 7.058733
3.4294941 4.231071 0.38509849
8.504262 0.79015636 9.4026184
7.477314 6.2472906 1.0518092
9.5205183 4.4568863 9.1564093
9.9766722 2.9772835 3.6028614
4.4720969 4.2350459 9.5373173
3.6140058 5.1740417 3.7033477
6.1925783 2.7458563 8.7709312
8.8842402 3.9230437 9.7804184
5.205893 9.0114269 4.7311368
2.2646258 2.4409218 8.9622078
2.6497242 0.94518363 9.7523642
2.0523427 8.4224977 5.9996548
3.1041522 7.9430156 0.45654052
2.2605615 7.9196877 3.4338241
5.8634233 2.3917847 7.66887
5.4007406 6.0057902 2.8429122
9.1040888 2.1983681 5.588768
7.8750186 1.0826081 9.5118122
7.655437 6.2885008 8.5232391
2.386574 8.5531273 0.9641611
1.3487817 1.2028511 1.9093447
1.1011459 3.2551937 0.33184201
7.1008005 6.3593459 8.2748585
7.5573406 8.6199074 6.1945457
0.9911651 4.4833307 8.5863295
8.6600351 9.8840714 4.5921202
1.5029476 8.9881592 6.7904882
7.0917158 6.8631787 7.8730965
6.6035275 4.5186157 4.1615973
5.1267672 6.9051895 2.7147243
6.0909281 8.2539711 3.9175751
8.0002728 9.3551168 7.1727695
8.3321152 6.4559178 3.532115
6.6069727 4.0132585 2.1520221
2.8015182 5.0044241 6.6353531
1.3878481 3.664459 6.5194235
5.9799681 5.167407 5.5075836
2.7704568 2.2591224 2.3707619
0.64355326 8.8626499 6.8893771
4.805151 3.9894171 3.7945673
7.519875 0.080344886 2.0485387
1.4374504 8.0806179 1.403656
8.610219 6.4127326 7.8595734
2.1423342 3.0197048 1.8728322
4.2943563 5.8212228 6.8772559
0.92970914 7.2090712 0.54171491
7.4491329 3.1890392 5.7091212
2.9567165 5.959496 7.9682441
5.3274779 6.6030498 6.8308935
2.2168558 1.4082003 0.82031041
6.0114231 8.9280758 0.90065527
8.0599613 0.36552575 8.9812737
9.4636173 8.9757452 5.3940053
7.3231912 1.1180794 8.4137096
9.196023 5.4124355 4.2349329
6.0732794 6.342145 1.4440041
6.6149945 3.7912779 4.6330433
2.3241158 6.7479944 0.59253961
0.29235923 2.0754726 7.1955891
7.1232529 4.2923284 8.6037893
7.943563 0.30375138 7.5318646
8.8442183 8.3637133 7.8973908
7.8254914 7.8273306 6.8731356
3.2194967 5.1505222 7.9912148
1.6332066 4.3465452 3.4036508
5.8681397 0.41982439 9.7457962
7.3121443 7.0348186 3.5370736
1.9451871 9.3589344 0.28506818
2.5377269 9.6512928 2.3605409
9.7333155 6.7745457 6.6528692
8.3371058 4.7181091 6.9566207
5.8689699 3.5623276 5.3203335
3.7663605 1.3878189 3.1476641
0.63949621 4.6073155 8.2981863
8.6307116 6.2405224 2.644731
2.0343623 2.1086619 3.0645556
1.7801582 9.4208059 0.099373981
5.3172321 1.3659928 9.4583082
5.6023002 3.9037194 9.109601
7.962841 3.6370354 5.8841472
4.6157103 1.9741405 0.60225666
1.5723306 7.8431106 4.1645842
6.8926644 1.6094711 5.5524035
0.040328287 2.2489674 0.15971872
8.3385143 0.87967873 6.4002409
0.98324531 2.914041 8.5089025
4.047801 4.6941991 7.9297085
4.1471748 0.011431109 9.295701
3.6054828 5.6137314 3.1994205
2.7150843 3.5765722 6.8364563
8.5992317 8.1922827 8.8105965
9.2014885 9.7646132 6.653707
3.3660727 6.6572766 8.2631788
8.9184761 6.6976051 0.51214588
9.0781946 5.0361199 1.3918246
5.4784355 6.0193644 4.3058658
3.9873383 0.067165673 9.0000648
1.9170465 4.2143402 9.0114956
1.2127476 7.8198233 4.625227
4.4121685 0.53490752 8.2017994
1.2486243 9.1341391 6.3940816
0.059220932 8.3356276 6.1586947
6.7129283 1.7017001 2.8159714
4.9761066 0.62017602 9.5135765
5.4882526 9.6983709 4.5496964
6.8800774 5.1768064 0.56906116
1.1859428 9.1641445 0.63622683
0.18600756 1.0811909 4.8505673
9.1975031 2.2939386 2.6703906
3.8227305 6.7061067 3.2052982
2.0245299 7.954731 2.3394372
8.4186115 8.0139523 0.67506486
4.5773058 4.7268801 2.376765
7.3932772 9.7029867 2.9969409
6.9068546 5.1912398 2.6953115
1.4565505 2.0713167 7.872118
2.0256116 3.2572594 7.036262
2.6618385 3.4432671 8.1174526
7.5124063 2.6407704 0.41139171
0.18279657 6.463501 7.1174984
3.3880947 8.4880314 5.0722294
5.7275319 6.9066424 3.0861819
6.402597 1.4839483 7.8130622
8.7793617 8.8772259 7.5160494
1.7763029 5.78408 2.7072885
4.4716148 7.2406301 4.7786055
2.3437324 9.266242 8.0358648
9.3799944 1.9280809 1.4791319
7.497448 9.4404869 4.1199021
7.9088397 9.6232834 0.58340335
5.0263381 3.011378 9.071434
0.098567739 8.7389097 5.9780765
3.1847496 5.1415071 7.4620252
0.99781179 3.9208694 6.3392506
8.5138607 5.6971717 2.1233311
1.2211497 0.16878653 9.3639622
5.9997549 2.5125189 8.6302042
4.0356197 1.8925133 0.55828482
5.5147514 9.3899612 9.9987717
9.634654 7.2988005 9.6220551
0.21805716 2.3251386 2.6334331
9.2894917 2.4237061 1.3723433
5.2675681 5.6084557 6.5138507
2.7295933 6.6062679 0.43471962
9.0688438 5.1201286 6.1318917
1.1921751 6.3412781 6.3006783
0.55613673 2.341033 8.8131971
9.1863403 6.3766527 0.70571035
9.744626 1.8914043 0.095671423
9.7433968 1.5260582 7.3944716
9.3654518 1.7441152 9.7196102
1.9988853 1.0336066 2.1433165
3.3712287 6.3011746 7.7517724
9.8850794 9.0307684 4.3580399
0.31979877 8.0996122 9.4781685
6.4516902 9.2917871 5.8194466
2.7523685 9.8479242 8.1604786
1.5655655 9.0342646 4.5371323
2.2712758 8.7788906 6.4285364
2.3669474 8.5222874 7.9545946
9.7614193 7.8877397 9.6987095
9.4810295 9.8866253 0.73231649
1.6243458 3.2578535 7.0334911
9.3761177 3.1429324 6.0642595
3.7341576 3.4627314 4.1638713
3.2123258 9.9144211 3.4556584
9.0317717 2.6667902 3.3035827
7.1922517 4.2323556 2.3378472
1.7293836 6.5036316 1.1167374
8.1579199 8.8705788 9.6390247
6.1125145 8.6319981 7.5267644
5.8112245 8.1130276 7.4133883
6.543541 9.7373734 0.671242
3.5770321 9.1134911 3.8141747
9.6412916 2.8476486 7.276906
3.8051629 6.0599747 7.1913271
7.2608213 5.0917463 9.8581181
0.56440419 2.2839978 4.0904732
2.9022515 4.0133815 0.59410459
4.0189891 2.1713014 9.4646835
3.6580136 8.2838163 8.0966816
1.1847777 4.0950403 6.2097092
8.5981665 0.63858128 5.947082
9.2694082 4.2156134 5.0605731
3.0835829 3.856905 7.9082212
0.36048865 7.6620679 3.9681959
7.551816 4.9228897 9.0599422
7.4099331 5.4872937 1.3439403
1.5004064 8.3895454 5.3573217
2.094511 2.4085338 7.5286226
1.5591944 6.0665474 5.812439
9.6558752 7.2513251 9.9074793
5.8655844 5.8494911 0.54606068
1.8126665 5.1188998 4.7616739
6.8732395 8.2024832 8.6185789
4.7814612 8.5629721 6.2806468
8.7496567 6.1147876 1.2035363
7.8095989 3.5247211 6.6908302
9.1535397 5.0251274 5.0803747
4.5108609 7.1196389 7.4889088
2.0394838 8.678833 3.5554562
7.8519225 8.3347092 0.80678129
7.7594023 4.2002935 6.6562729
8.3054628 6.01296 1.7751731
3.067137 2.8861997 9.9776564
1.6857162 7.6676607 8.5406284
7.966363 6.4173174 4.6554155
9.169899 4.2269168 8.1801367
5.8607292 3.380456 3.2052646
0.94110394 7.8913169 0.32490313
8.4300127 9.9308004 9.0037365
1.9854686 7.7827234 7.3384452
2.7922499 5.5421257 1.538739
9.4485226 3.8475883 7.5516992
1.2236958 6.9147253 0.43789876
1.201352 8.6004419 8.1055593
9.7419796 6.5668049 4.5228772
4.3973956 5.7367043 8.749794
2.5775325 1.5974333 2.1302495
5.7827969 2.5385375 0.021566205
6.1076999 0.96854979 9.9523668
5.1114364 2.9540184 7.7350903
2.4498816 5.7462683 3.2772157
3.9886203 5.1947908 7.1248045
1.5403194 6.4184866 4.0395298
1.9782183 7.6198387 2.639971
0.083777681 7.3618183 9.2067757
4.6066546 1.7592143 4.94348
3.3564482 4.3367467 6.5409136
5.4866977 0.11954349 9.0794506
5.5082636 6.2272434 0.048000604
5.4606304 1.3386797 3.0020189
3.1957207 3.7885613 8.7482872
6.4729362 7.7771811 3.9430783
3.5977402 9.3175011 0.36156499
7.63727 1.2957193 7.9814043
0.27724105 1.3794971 5.3432226
9.4840164 5.9861517 7.102437
4.4274969 9.3425999 1.4391835
0.96841073 4.8292975 1.5587269
0.047861569 0.3375614 7.7859707
0.095862165 5.798192 9.12465
3.0978811 8.9939127 2.9132113
1.8461683 5.4668493 0.69039279
5.7892466 9.0645895 0.0078938203
6.1508112 6.7018595 1.3036132
4.132215 6.9791002 2.6831102
9.4754372 6.4631176 8.6692619
6.5778742 0.89061451 8.0118618
8.0170574 1.8590252 2.8411591
9.5757847 1.9068868 3.1787205
7.3617554 2.002749 8.9769125
6.4864054 5.1006298 7.9708252
9.3996162 6.9467983 3.4376743
0.090009227 2.7360449 2.5022638
0.09790305 8.8868561 9.2041225
1.4015162 3.0190716 6.1832232
4.0846262 2.4945092 2.6463404
2.7538881 9.0723839 3.5369551
0.76574969 7.0894413 5.3959804
3.6069088 6.665226 7.3028669
6.7856293 4.0269814 9.3056164
5.7625418 0.51338685 4.4062462
3.733367 9.9130039 1.3530446
7.1710415 0.0030125678 4.0890894
9.6733055 0.10091562 2.9759457
8.8774281 1.5024318 5.9950171
5.0606513 5.5870581 8.4895267
7.7069921 8.3409462 7.5619102
1.2439468 9.1066952 4.6513515
6.6399269 2.7136045 1.3165781
3.9427943 9.4992342 5.3435593
3.2484102 5.261776 5.8569469
7.6546569 8.9951429 5.7699499
9.0077009 6.1661839 5.7729626
3.0967908 5.839489 5.873878
6.0727367 4.716917 7.3763094
2.067754 9.7775679 2.9633679
0.55728072 7.48456 1.3043143
8.1191912 8.7285061 0.41101015
2.7705426 5.368434 3.124615
4.0871205 9.3112288 2.6238489
9.4306803 2.5596385 7.8856249
5.2876272 0.21429518 6.8807673
1.0575767 9.2219963 3.0469513
6.8305392 2.3187873 8.8864403
2.7044172 8.3915243 3.6033578
0.080726966 0.45927835 3.3809259
3.044095 1.0165591 0.86548591
4.3484092 9.1357498 9.5939932
4.7594194 1.9062924 4.9624267
7.8840342 5.9934134 4.2736549
0.50788295 5.4240937 6.8332934
8.393508 0.71172005 7.0475888
5.2742748 1.7692966 6.2695847
8.3212261 8.5998354 8.5883722
7.2076664 1.3042529 6.9798965
0.81102437 1.38498 7.4391751
4.1919503 4.4290748 8.4557343
5.057436 8.7774839 7.5914841
4.6514287 3.5369034 9.497777
9.6138554 1.4209375 5.4911895
3.8875103 1.9288206 0.91528285
0.72080368 0.32232809 1.627003
7.7683921 5.5966034 3.3962998
4.0379772 3.917829 1.9961355
2.6263499 1.125496 3.3003883
9.606246 1.9365203 4.6853681
7.0454216 6.1284704 9.1144428
5.5011554 1.1859066 7.8919272
3.0926394 5.8373356 1.4288305
2.590416 5.4511909 2.8497682
8.0816059 9.3387012 4.7785883
8.9968882 0.059504841 5.1009169
0.62389123 7.8278971 0.69751954
4.0201907 1.8658744 4.6153488
6.0163264 4.4922242 5.7408447
9.3167143 4.0984707 7.6773648
4.0020828 1.1438922 3.8058357
3.1165261 6.6450477 4.9917421
1.008453 9.7376871 0.82907784
2.4372835 2.3281031 6.2802687
5.2870512 0.40970868 5.6189699
0.065639906 9.4065971 5.6784749
5.1665564 0.030488176 3.5063717
5.8640761 4.0506787 5.3722467
0.47942492 0.067005299 9.8644705
6.2202697 9.3837204 3.9629412
3.897635 3.3858027 5.1068335
7.7034707 6.5023284 1.7518811
2.6952128 7.5107818 1.4895684
3.524291 9.9480648 3.8176715
9.8045597 5.2351165 4.2273803
5.4235291 5.300756 3.6339772
1.1020039 0.46731287 3.6644652
4.6083755 6.331389 7.7151442
9.9806223 6.8108139 7.7821498
9.8450928 3.0310836 7.1658697
3.8080335 6.9287186 0.55167234
8.9148674 4.6321893 7.0540009
0.66674799 7.3274021 4.5647826
2.1563163 0.85169291 4.5128479
5.9739876 0.65625244 9.7479639
0.20136811 6.0797815 5.0487204
3.8353453 7.1817856 5.5160332
7.4998102 1.7901614 1.8474221
5.2149553 1.7707834 8.6582365
2.9971049 1.6158757 1.6893197
0.16297437 5.4239092 8.6180382
0.7146467 4.3387761 3.2502272
7.7686477 5.0055242 0.57762957
2.3334305 7.1618409 1.4293225
6.8462782 3.1358285 2.0855749
6.5942426 3.3371964 8.1653566
1.6429626 7.1725416 5.3471422
7.1589956 4.6723523 7.1373034
9.0064182 9.8873072 8.9080868
7.6646543 2.8844121 0.52396268
9.3539734 3.0473866 5.9478717
7.972012 3.7620332 0.28664809
1.2222395 1.5306811 5.2921724
1.7998689 3.8641117 2.4540129
3.2291915 0.71038967 5.5898409
5.3147659 7.3046322 8.9270382
3.480123 8.9475946 6.0995793
8.8272648 6.1065903 0.77193189
5.9645691 5.1130085 0.65923935
4.8726559 2.7776625 3.5436516
5.3966184 2.1316364 6.5910382
1.3444903 0.10364834 0.35307163
1.6311384 1.3258877 1.8837528
6.9233108 3.1257567 5.7478642
9.3773232 6.354948 6.4582539
4.9671645 1.6697147 3.762886
3.8942025 5.1498375 2.7104805
9.993782 3.977103 8.817071
0.76571357 9.9416714 3.930079
1.424953 4.8143272 6.7077417
4.9686046 0.21094576 8.8393774
1.5596428 1.5554361 8.9430256
1.9127145 3.1865745 0.26891395
3.7964673 0.10988522 3.3946707
9.5443316 9.4872084 9.7496195
6.0025859 4.4543734 1.4193338
9.7654715 8.3485756 6.5691714
2.4759519 8.3423576 0.54627424
1.2930226 9.1080713 0.48794591
5.2231021 0.53302413 5.3022728
1.9308434 5.5016284 5.5132194
0.77022111 7.0612717 7.068655
9.7132473 8.9739857 0.25522962
9.9821606 2.7704535 0.36511484
3.376832 2.314785 9.8523235
3.126451 8.3173704 4.3066969
4.545785 8.0828419 2.6552727
1.1149563 0.5587942 0.99763024
1.6612304 1.8518169 0.10570132
2.1491764 7.0749187 0.63872546
7.4514494 9.0057621 6.1403542
2.9646685 9.7759829 3.2016258
0.03332375 9.4892302 2.1756122
0.28855336 9.4713917 4.9460654
0.65366817 2.8482234 7.2608509
0.50599182 5.9746747 5.5782218
4.8126888 0.52045941 3.6610637
7.4679613 1.6354157 4.2198582
8.4655914 3.2966461 6.0716748
8.5712929 5.4458227 3.1465936
9.2100182 2.8972721 2.1523552
5.3503728 5.8619409 1.9283384
8.5519991 5.8952646 1.4175688
0.72761083 6.1838179 0.88896024
5.6736765 6.8374863 3.7371838
2.9345272 7.3434782 9.7118578
8.5127487 2.1561668 0.23231775
2.1738124 9.6241283 1.8677335
6.3936706 8.0897198 5.1643796
2.4653451 6.6610126 0.61020213
5.6119385 5.8710313 3.5074744
7.7642941 1.221404 9.3694153
9.6926327 9.7734032 5.2646799
1.110201 0.50101352 1.4484978
1.9991612 6.1746902 8.285984
5.7363453 9.1092167 5.6294622
5.4482036 7.6219659 7.7856283
5.680521 9.7957783 7.4097567
7.548255 6.1894484 5.4994769
2.7126341 8.6547937 2.1604896
3.3228362 4.2667322 8.0315208
6.8303108 2.0310259 9.2529249
6.1997261 1.7236583 9.0263281
1.4644057 2.8338594 9.5273409
2.9129033 4.8330207 5.7020311
1.1988872 0.56936574 4.8112483
6.8283491 6.0175695 2.4332139
4.6139774 1.6980903 2.2289922
2.0237346 9.2463446 8.4184408
7.5232115 1.9589789 7.0732346
9.6837006 5.2818155 1.3399662
7.7152214 2.1121259 3.3709922
6.9681463 8.3118515 5.0946503
5.9944744 9.7762575 7.9285097
5.5218153 2.6891608 2.7615304
1.2238462 3.8880479 3.3308961
6.0350943 0.71639711 9.348465
8.4683084 5.3303747 1.0465555
0.69730073 7.3541093 0.29290032
9.1157417 4.8773208 2.2518792
6.1889753 4.5610218 7.5336943
7.5289416 2.2762434 9.6458206
0.89993387 9.2443905 7.9576726
5.9945841 5.2388639 7.7339296
3.923094 0.76067924 0.42309022
6.6846247 1.9845254 4.3111382
0.015520365 8.0196199 5.027535
9.363986 6.4879284 0.35791007
0.41054103 7.1852293 7.7120199
0.70344138 6.3009701 2.5893402
2.9553208 2.4899461 7.150362
0.48901522 0.018887883 9.4266052
0.13483572 0.91882175 8.6709957
8.0925074 6.9134064 3.9098594
5.8264375 0.83649993 4.6705384
6.2495279 7.5211244 6.6550641
0.56066585 7.5366445 4.674684
5.5882015 6.90063 1.1626124
5.9461112 7.3111715 8.3478413
3.6581306 8.0146132 4.6488123
6.2474709 0.96993321 7.1387582
3.3978331 1.4589484 7.1576462
2.8244386 1.5937841 8.0764685
1.4954339 9.6862917 4.9898739
5.405293 5.5127292 5.8263736
0.075832017 1.7622572 3.3474979
6.730896 2.3229232 0.88414258
1.4055802 7.9111242 7.7847724
2.5681927 3.8572354 5.0959439
0.91603428 7.5153661 3.1105564
5.5648465 3.7628369 4.0804896
2.7036047 7.1606703 5.5394382
9.8612509 9.9851084 7.1332221
7.9377184 1.4805423 6.8195143
2.9275928 6.8858356 2.3322437
8.7539663 6.9616675 4.094501
2.1014645 3.6925638 6.4174242
2.9856071 5.0981436 4.3285484
0.77037978 7.666337 8.1857834
5.8663235 8.5823708 5.7011499
8.9768801 4.1472173 9.4639864
3.0573697 6.850822 6.6246562
8.5968075 6.7120733 6.6097646
5.7300301 4.6497917 8.0903072
2.5495439 7.577384 4.9761429
4.8817878 6.3313508 1.9378102
8.9762888 8.4328156 5.630374
5.3937125 1.4184223 0.72851789
9.7222614 2.188802 8.3948545
7.9080448 8.0551252 6.9772253
3.6091945 7.0320058 1.1244429
3.0731812 0.08937519 7.9752645
9.6978378 8.686182 4.6873379
6.3076024 4.4162126 9.3371296
4.3979096 6.9657564 6.9145145
9.374052 1.847544 3.2458649
1.3118626 0.82383251 1.6786801
6.9422364 6.2175455 3.0971024
7.6707549 5.9398069 5.2859044
6.0656095 3.8478515 3.3410299
3.0428348 7.457046 0.37303549
4.1672778 0.53022707 0.46241069
2.1425428 0.22806473 9.1485939
6.8298807 6.5356674 3.564806
6.1670103 0.93357712 0.53056228
3.0815244 0.30762953 2.3781064
6.3273897 1.6194922 3.2019389
8.0060692 8.5617285 9.4194841
1.1031717 6.2324834 5.3592911
6.3890762 2.2980926 9.2071419
9.7301064 5.3409271 6.6641879
0.10314143 9.5082054 7.1944151
0.56555212 1.650748 7.4224801
9.7141457 8.480629 3.958147
3.2789516 4.6476393 4.8917241
3.8095138 7.7291632 5.1993537
6.1876202 4.0565529 6.8188457
9.3895588 2.0626221 5.3805752
8.8090429 3.1657937 1.6130583
4.1683335 9.5548706 3.9111509
3.3754756 9.2849751 9.252079
0.039663758 9.3881168 8.7602835
7.2340784 9.9536695 0.41103169
4.6565585 9.6678152 8.8916607
8.614706 2.9467664 3.5392995
3.5064301 6.7562799 1.2684627
8.7057838 2.9439001 5.3250151
5.5246296 2.3334591 7.3876376
0.90520447 1.142502 0.55343121
2.5182629 5.3108358 0.10830104
6.4294143 8.6863117 9.3932762
5.6814928 8.725975 8.781394
4.4417763 5.9600539 8.7350636
4.852808 0.61661261 8.4028778
3.7444685 9.2313185 1.3496447
7.2837677 2.7377484 8.1059246
8.5522299 1.443532 1.0498251
3.8772454 6.9681616 3.3832841
1.264883 7.8733659 4.5257859
1.8183142 0.39162901 9.8366222
1.9266152 6.821043 8.522933
1.3198922 2.5025353 7.248908
0.10128611 6.9443121 3.2089624
8.8363495 1.7971195 3.8255751
7.2392278 5.5415878 3.0568933
8.5888729 2.8253553 5.794642
6.6947975 1.3775855 7.238174
7.7446222 5.2548313 4.2063355
1.1279066 6.5197139 2.0797017
5.6536922 8.338028 2.4713306
5.4903145 0.26464334 9.2923737
4.013248 1.5845354 1.794909
1.2621562 1.6858215 8.7392206
4.4711189 0.52217102 0.53634
8.2966938 7.7613983 6.0779281
1.3535872 6.3502712 8.9032831
7.1482286 3.0450687 0.28086865
4.3864026 0.78969115 5.5356998
8.5927382 1.9175978 2.0554137
0.67243987 7.571291 0.39344189
3.1437705 3.061605 0.65808523
2.4361439 7.0748525 2.2426205
4.2310529 8.3370094 3.928442
2.9702733 2.8081276 4.450613
3.5066133 1.1048214 2.2120121
9.5845413 2.4584086 8.5622835
8.4878244 9.606637 1.607352
8.768693 3.9930403 2.3970432
4.3043928 2.5857785 4.314641
6.3598061 3.2582183 1.8859315
6.7532482 6.401989 4.9475365
7.4113331 8.8381329 2.0223894
9.6539536 3.0691857 0.35939854
3.5823963 6.0394583 3.1675262
8.0330095 9.546072 4.2723475
0.24502127 9.1306133 6.7307563
8.8073044 7.6184373 6.3373938
0.41465667 6.3871307 0.33043396
2.8116999 0.69152302 2.9162123
7.1263409 7.0513296 6.1744308
9.0122719 3.8045776 2.5764194
3.9598088 1.215911 1.4145519
5.9821982 0.86986506 4.4837375
6.3415966 4.452261 0.52319616
9.5091228 2.4852705 0.069268256
3.781471 2.7302918 9.1998816
0.51222718 1.5375962 6.8183188
6.8496208 1.952253 3.2054493
7.1800547 4.7639527 3.8969722
0.096267253 1.8902938 0.94830167
6.2706976 0.90256619 4.7528791
8.8471174 4.8623748 5.9687901
0.26166907 0.84457344 6.8386555
4.7454066 7.1861701 1.2909164
5.2686024 6.6952939 3.7761869
5.3378706 0.47676444 6.5064788
4.5377522 0.98899156 8.044075
1.3560714 7.8386126 9.9963274
4.5615206 5.0186677 4.7602806
8.4584923 5.1149344 6.6505747
9.4067945 1.3856325 7.5531411
4.1596742 0.23274966 2.4155161
0.12846434 0.49441871 3.2600894
6.9671197 5.2398252 0.44625986
8.2580366 0.50842774 7.1415529
2.0342231 5.8462992 7.6183176
8.5407019 0.38405097 8.6073093
6.5847769 1.7401223 6.4459219
6.5811052 6.3016434 1.4645894
1.3413858 4.7601361 6.5795236
7.9919605 4.1669312 7.9651566
5.5451016 8.3266048 8.1979065
7.9606175 8.4550686 8.6923246
1.2207069 5.4221888 3.9321499
1.6669668 3.6802249 4.440578
8.8085203 5.714448 0.28687644
6.4268379 4.2551498 0.67092746
5.0341473 0.83992672 2.4110498
1.4800694 7.4210315 8.7126932
2.9446588 8.7624178 3.4728289
9.5241823 6.7543783 7.63976
7.4893389 2.2994795 5.9663649
5.6872454 0.26009706 4.4214339
4.37957 1.4808041 9.8436222
8.3117208 3.1477711 3.5238476
2.7522981 1.9562912 9.2382956
3.0391743 8.3831291 3.4934454
3.7101018 3.4172769 4.3333726
6.1211514 4.897346 1.7544038
4.8338447 7.8420048 0.51682132
8.306673 7.3661876 7.2711992
5.9464331 4.8555269 9.5706787
1.9127975 0.54277229 9.8307762
6.3342309 4.9223428 1.3115799
6.1778536 3.2340627 4.4593511
9.7017012 5.986361 6.4156418
8.9399967 9.0255346 4.7987714
2.4334424 2.7356372 8.2160482
6.7668147 8.8567886 3.1133943
8.5212183 3.6906335 0.95539951
9.0380402 1.9973066 8.3215876
6.3092394 7.9437399 3.177114
5.8799181 9.8565369 3.7198865
5.7106943 6.1907678 8.6422291
7.022274 2.3686218 1.8762918
1.4816251 2.070323 7.8626528
7.8972673 1.0103197 6.8881874
2.6960387 3.4437621 9.6238251
0.91208696 0.21057683 8.4806137
4.0254812 8.7317953 2.1712472
4.9808807 7.7698355 4.1685538
3.3024683 4.0790744 2.1122935
6.4795823 9.958993 1.9688306
0.19946897 5.6696868 8.1595984
8.8416977 2.6919613 0.52822047
0.71798974 4.1735864 2.5985434
8.5806427 2.0708535 3.6088631
5.4688301 4.7668924 7.0526257
5.0926547 5.6789789 7.2632022
3.5732687 9.7044601 5.9949975
5.7445154 4.6853418 3.764833
9.9130697 7.9878097 7.8439074
2.025363 4.4673924 7.8029008
3.9941936 4.6668615 3.4725878
2.1537921 3.5085592 6.1645489
2.6820126 4.2265491 0.33813512
5.2805562 2.8071909 2.4089887
8.8894196 8.276021 7.1758804
5.9420447 3.3686757 2.8548598
3.2052469 6.9419441 2.5593207
9.2002449 2.68646 7.2446623
2.9650774 2.5995297 5.2324719
0.80898535 4.6248922 9.6998644
8.611886 8.6190863 4.3667259
2.0844736 0.77287841 7.8752847
8.2490225 3.4548912 2.1018338
8.5871582 8.7354469 4.9090247
0.99614644 7.6248665 3.185046
8.1720276 3.5669112 6.5537219
1.0268872 6.7721581 3.495666
3.5862079 5.9724026 6.182126
0.83086997 8.9374809 8.7816553
6.0633421 9.7464657 3.4065483
5.7632065 8.3583517 2.0256343
0.12993179 0.44282538 2.7985125
8.0052166 8.6918478 6.2534037
0.10705042 7.2790055 4.9888511
5.0160751 8.2751522 2.6137173
8.2011213 6.4471793 6.1806288
4.7548432 7.4740667 2.9527867
8.2505093 1.0602746 8.925189
4.4326348 1.8911445 7.8626699
3.2142906 7.9544868 7.6091347
6.6208386 3.7176929 5.9674864
8.6464729 3.8476248 6.4103122
1.4449856 1.8528413 5.10216
7.6983891 1.9598916 2.381166
2.6872399 6.9759665 0.65631831
5.3009577 5.1770883 7.103498
1.481586 9.9319315 4.5775647
4.4343729 8.1824408 5.6378393
3.3595619 2.6150753 7.5289841
1.2222315 5.8293657 5.4834704
8.8313665 2.4502048 9.2011633
4.7988534 1.0966779 3.0487876
1.2091657 2.5416634 4.901629
6.311326 0.24005251 6.8615203
8.6924915 2.9272926 3.8374875
9.3488102 8.2282505 9.014576
6.4523077 9.709836 8.9465065
1.0298727 4.1442084 7.1289473
6.6677117 7.5037708 9.7440224
4.1966958 8.7260017 5.5733891
9.6801662 7.5573688 8.0235939
8.8813295 2.3562222 9.1202717
1.930117 3.565388 1.661935
6.8317456 9.8767138 1.9019876
3.6932662 8.5692053 4.8292799
7.5307536 7.9180155 3.0575299
6.5453291 4.3703237 2.7673659
5.4918361 5.4001961 6.9115744
2.6207833 2.0679083 4.4153447
2.3648062 6.2646036 3.1413472
7.9381948 5.9447699 0.69871593
5.9617891 4.8260994 3.0549381
5.0820608 6.756216 6.620326
6.7439957 3.5879622 6.4970398
8.6459827 7.2812281 5.066246
3.4752629 4.8119822 2.9842615
6.532793 1.357311 7.3545847
9.3001585 6.8491468 2.7547815
6.2117333 9.4699306 4.8226895
0.62707794 1.8347368 1.0872936
3.768425 9.7729321 7.0320635
4.4671412 5.7347207 1.8581629
7.5220795 0.81678128 8.6143789
4.142405 7.5607772 2.2023411
0.63944513 6.2067599 9.4835691
5.7056909 9.6820221 4.2955513
8.6899519 6.2148151 5.6528621
6.0445375 5.5149741 2.5020096
8.7993183 1.7267071 1.97194
3.6220086 2.353785 3.8066769
