# .PCD v0.7 - Point Cloud Data file format
VERSION 0.7
FIELDS x y z
SIZE 4 4 4
TYPE F F F
COUNT 1 1 1
WIDTH 1813
HEIGHT 1
VIEWPOINT 0 0 0 1 0 0 0
POINTS 1813
DATA ascii
0.97424442 5.6113534 5.3628922
0.899993 5.7786288 5.1213641
1.0763358 5.8181324 5.2582026
1.2507818 5.9284086 5.3223729
1.1760041 6.026556 5.1494479
1.3945215 6.1560264 5.2384953
1.5730526 6.2384467 5.3346062
1.4730301 6.3489046 5.1241255
1.6806622 6.4700108 5.2106509
1.8505406 6.5594764 5.2910647
1.7838981 6.6594048 5.1244926
1.9736215 6.7229857 5.2506351
2.1635747 6.8698773 5.2936969
2.0660996 6.9438114 5.1222878
2.2692423 7.0045719 5.2646708
2.4593046 7.1474085 5.3118963
2.350795 7.2466412 5.1041541
2.5668783 7.3495913 5.217288
2.7752364 7.4490628 5.3261733
2.625109 7.5077019 5.1174059
2.8729014 7.6271586 5.2457428
3.097317 7.7446742 5.3526425
3.1889389 7.9532447 5.2356944
3.3658087 8.0060482 5.3597608
3.2613645 8.145504 5.11586
3.4486465 8.2308216 5.2178259
3.6853874 8.3509684 5.3344188
3.5488634 8.4152393 5.1336241
3.7451615 8.5275955 5.2175665
3.9644525 8.6448126 5.3196397
3.8376329 8.7132368 5.1243958
4.0372524 8.8208065 5.2164459
4.2538238 8.8790483 5.3747759
4.1846571 9.012001 5.1726556
4.3657002 9.1254272 5.240273
4.5496688 9.234271 5.3153987
4.4824266 9.3180399 5.1643867
4.6575422 9.4461145 5.2114277
4.8885255 9.5507793 5.3377476
4.7686262 9.6421928 5.1264329
0.49084431 4.9309592 5.5598845
0.72424364 5.0716672 5.6525764
0.58958203 5.1714501 5.4181328
0.76328456 5.2444096 5.5188751
0.96112102 5.3110385 5.6500831
0.89659297 5.400846 5.4957471
1.106198 5.5397644 5.5664344
1.2914646 5.6332383 5.658226
1.3681663 5.8335657 5.5346007
1.563544 5.9310851 5.6324587
1.6704568 6.1487217 5.5217342
1.8530737 6.223433 5.6296411
1.760133 6.355216 5.4049168
1.9792551 6.4429855 5.5362692
2.116329 6.5195107 5.5968175
2.0375149 6.6337142 5.4038
2.3006103 6.7259984 5.5746117
2.4648573 6.8140435 5.6508141
2.3670511 6.9391747 5.427876
2.6035237 7.0430107 5.560513
2.766264 7.1331162 5.6331482
2.649879 7.2320471 5.4178319
2.8742173 7.3298068 5.5444107
3.0719349 7.4125161 5.6594186
2.9295101 7.5112491 5.4182611
3.162601 7.5971479 5.5654535
3.3339596 7.7021999 5.6317596
3.4863646 7.931488 5.5548763
3.6912174 8.0622225 5.6289945
3.7720819 8.2669106 5.5051723
3.9562643 8.3009062 5.6553583
3.8866844 8.4542952 5.4323893
4.0202999 8.5137959 5.506506
4.2515702 8.6342487 5.6173205
4.1713548 8.7506847 5.42067
4.3773613 8.8643217 5.5130391
4.5472879 8.9201021 5.6271863
4.4616532 9.0458117 5.4158411
4.6677241 9.1365919 5.5311322
4.8815751 9.2350225 5.6465516
4.7722812 9.3262215 5.4460611
4.9524107 9.4007225 5.5516877
5.1730967 9.5231915 5.6499047
5.0660582 9.6256094 5.4404492
0.37514797 4.4213467 5.9538016
0.4440189 4.5875077 5.8565116
0.69135195 4.7544665 5.9368858
0.58449697 4.8076358 5.7768612
0.78876686 4.9416118 5.8471551
0.99787283 5.0240717 5.9738016
0.84596449 5.1094866 5.7364774
1.0485401 5.2417612 5.806778
1.3078632 5.3433089 5.9645548
1.3594249 5.526195 5.8332305
1.5779266 5.6427078 5.9352188
1.4933295 5.7426596 5.75067
1.6471143 5.8169179 5.8301973
1.8595593 5.9326334 5.9269261
1.7880495 6.0102429 5.7778063
1.9752989 6.1353025 5.8399963
2.1722412 6.235538 5.9367027
2.0802381 6.3332891 5.7469492
2.2493629 6.4143858 5.8349762
2.4612854 6.5376129 5.9236722
2.3656099 6.6295028 5.7361069
2.5792413 6.7274432 5.8517976
2.7799914 6.8252931 5.9546986
2.8863525 7.0671444 5.8192096
3.0404117 7.1052251 5.9351859
2.96908 7.2378454 5.731235
3.1660271 7.3482389 5.8177886
3.3463929 7.4341078 5.9122853
3.279135 7.549037 5.7300978
3.4622362 7.6462359 5.816
3.6624269 7.7384934 5.923933
3.5864029 7.8723636 5.7140393
3.7896259 7.9260807 5.8635445
3.935323 8.0308704 5.9044518
3.8538589 8.1484909 5.705368
4.072216 8.2223892 5.8498254
4.265203 8.3410339 5.9241691
4.3720002 8.5557499 5.8162498
4.5606089 8.6596651 5.9009442
4.489171 8.7536345 5.7355361
4.6574535 8.8588657 5.7985878
4.8802028 8.9188919 5.9613113
4.7532239 9.0421038 5.7111206
4.9754376 9.1522646 5.8231711
5.1765089 9.2250891 5.9514189
5.0610962 9.3002901 5.7608061
5.286128 9.4356604 5.8504682
5.4367223 9.4995947 5.9371271
5.3675294 9.6286287 5.7389007
0.36321983 4.127223 6.2359972
0.25613499 4.2085991 6.0475359
0.45487997 4.3208904 6.1339903
0.67011029 4.4333415 6.2367682
0.56720668 4.5222006 6.0450058
0.75960052 4.6406422 6.1189585
0.95168996 4.7226381 6.2290516
0.86583 4.8598909 6.005939
1.0604279 4.9234986 6.1369295
1.26431 5.0414186 6.2228918
1.199876 5.1243329 6.0755429
1.364833 5.2362528 6.1285801
1.5923494 5.3423781 6.2499714
1.493261 5.4176431 6.0756192
1.6618699 5.5379343 6.1239371
1.8911439 5.6571755 6.2339678
1.731194 5.7155151 6.0156779
1.9692285 5.8432331 6.1259961
2.1981571 5.9487658 6.2493916
2.087693 6.0425758 6.0451169
2.2522135 6.1160011 6.1362123
2.4503837 6.2385335 6.2118506
2.5644319 6.419507 6.1449232
2.7589734 6.5437226 6.2152514
2.8781183 6.7203455 6.1577735
3.1201696 6.8618507 6.2583194
2.9403665 6.9359674 6.0043993
3.1674113 7.0216289 6.1457825
3.3585646 7.135725 6.2228398
3.2852185 7.2710485 6.0141697
3.4537387 7.3216524 6.1320868
3.6542425 7.4406123 6.2136302
3.5863564 7.5135202 6.0728359
3.7755046 7.613204 6.1623011
3.9313228 7.7254157 6.2059078
3.8777244 7.8325086 6.045217
4.0737867 7.9462571 6.1275287
4.2700272 8.0470419 6.2229848
4.1686406 8.1325493 6.0360918
4.3810182 8.2288866 6.1521301
4.5574594 8.3256903 6.2317677
4.4981279 8.4087858 6.0893421
4.691402 8.5288363 6.1625648
4.9089203 8.6534567 6.2554641
4.788764 8.7716837 6.0170798
4.9832139 8.8514471 6.1317673
5.1723571 8.9411268 6.2312303
5.095293 9.05756 6.0377336
5.2365804 9.1201868 6.1163964
5.4582672 9.2252817 6.232985
5.3421221 9.3161612 6.0259609
5.553545 9.4160452 6.1374998
5.7921381 9.5458755 6.246264
5.6091728 9.6061583 6.003016
0.395854 3.8634949 6.5323586
0.47170034 4.0288701 6.4428291
0.68896455 4.1400614 6.548903
0.74604148 4.3406467 6.4053941
0.96175325 4.3919272 6.5698252
1.0732152 4.6426892 6.4305267
1.249552 4.7417283 6.5078244
1.1861606 4.813024 6.3731365
1.3708299 4.9501553 6.4206738
1.5688283 5.0305429 6.5382857
1.4576055 5.1036959 6.3539104
1.6481099 5.2046247 6.4434857
1.8384999 5.3380075 6.5004921
1.7888275 5.4251509 6.3636761
1.9796531 5.5147543 6.4648995
2.1467562 5.6141887 6.5325665
2.252831 5.8164511 6.4363794
2.4640083 5.9424891 6.5215187
2.3768957 6.031034 6.3458619
2.5861771 6.1413283 6.444849
2.7387388 6.2187185 6.5200205
2.6781468 6.3683414 6.3098054
2.8434386 6.3998566 6.4435816
3.0750058 6.5516891 6.5233159
2.9795215 6.6325755 6.3469458
3.1783395 6.741467 6.4368725
3.3800991 6.8297019 6.5503974
3.4568419 7.0404778 6.4163647
3.6527362 7.1269622 6.5257745
3.5924428 7.2690387 6.3234038
3.7739909 7.3397985 6.4341927
3.9354634 7.4379702 6.4974928
3.8545439 7.5520701 6.302475
4.0239711 7.608654 6.4153161
4.2218709 7.7014837 6.5203872
4.1811819 7.8488841 6.3322978
4.366848 7.9148302 6.4520183
4.5692077 8.0590696 6.5101366
4.4565868 8.1310396 6.3255463
4.6698446 8.209444 6.4604001
4.8446116 8.3409138 6.5036983
4.9909463 8.5505238 6.4404221
5.157577 8.6231871 6.5343904
5.0566339 8.7329197 6.3237152
5.2505169 8.8443546 6.4061618
5.4497809 8.9412451 6.5085363
5.3598547 9.0175085 6.3423462
5.5743933 9.1346197 6.4397731
5.755847 9.2341595 6.521688
5.6558604 9.3278008 6.3280602
5.87428 9.4244862 6.4497938
6.0640163 9.5297766 6.5342398
5.9993782 9.6835861 6.3157921
0.38772476 3.5567706 6.8309541
0.45858869 3.7444577 6.7141309
0.69854677 3.8528047 6.8457427
0.55686152 3.9405484 6.616313
0.7741006 4.0506821 6.7234192
0.99376333 4.1486759 6.8450875
1.0258414 4.32233 6.7035108
1.2418524 4.4438868 6.797966
1.1388046 4.5124011 6.6264029
1.3548975 4.6201925 6.7347045
1.5486289 4.7464242 6.8022051
1.4895233 4.8592305 6.6302929
1.6728462 4.940536 6.7323093
1.8748382 5.015368 6.8594708
1.78959 5.1254115 6.6641784
1.9739733 5.2301798 6.743794
2.1528444 5.324894 6.8279514
2.0492544 5.4453497 6.6039047
2.2742295 5.5315619 6.7426677
2.4481726 5.6309357 6.8172369
2.5396452 5.8259416 6.7137036
2.7929034 5.9145622 6.8783407
2.66559 6.024137 6.6414528
2.8654728 6.16787 6.6976027
3.0775068 6.2570724 6.8204341
2.9597185 6.3219762 6.6377416
3.1792293 6.4357405 6.7434883
3.3919833 6.5335164 6.8584666
3.4658322 6.7250519 6.7407799
3.6672053 6.8484535 6.8187518
3.5498719 6.9408808 6.6089907
3.7612541 7.0317612 6.7294927
4.0062122 7.132946 6.8732657
3.8445976 7.2273359 6.6172614
4.0783229 7.3558536 6.7224698
4.2606273 7.4175043 6.843122
4.1194272 7.5027809 6.6166458
4.3701396 7.6660461 6.7040935
4.5963087 7.7372575 6.8590508
4.6691642 7.9399862 6.729177
4.8629918 8.0373764 6.8256159
4.74475 8.1284046 6.6163449
4.97013 8.2457256 6.7244043
5.1774478 8.3687277 6.8087192
5.2805347 8.540925 6.7396092
5.4629984 8.6348352 6.8281631
5.3702011 8.7502909 6.6199107
5.5670843 8.8366013 6.7304821
5.7769918 8.9585848 6.8184071
5.8752065 9.138854 6.7363496
6.0665102 9.2145863 6.8519225
5.9445229 9.3081036 6.6364202
6.1741319 9.4203529 6.7537794
6.3333125 9.4890661 6.8442464
6.2781868 9.6173363 6.66085
0.38068768 3.2491491 7.1315384
0.46230522 3.4439003 7.018405
0.71595877 3.5446084 7.171351
0.57612002 3.63288 6.9432402
0.73674375 3.7226479 7.0140958
0.98009866 3.8494027 7.1306968
0.85527599 3.9157791 6.9394975
1.0788789 4.051311 7.0275679
1.2698184 4.121469 7.1483488
1.152133 4.2372522 6.9148808
1.3736511 4.3521867 7.0214648
1.5628625 4.4581385 7.1047239
1.4841465 4.5333905 6.9507561
1.6694357 4.6569252 7.0125103
1.8868799 4.7682452 7.1186347
1.724247 4.8237319 6.9005151
1.9302419 4.9057307 7.0245123
2.1835272 5.0494995 7.134027
2.0471642 5.1110573 6.9361076
2.2785935 5.2365413 7.0420532
2.4531288 5.3640943 7.0890346
2.3780589 5.4714608 6.9065981
2.5535197 5.5366201 7.0168986
2.8183265 5.6705494 7.1477771
2.6567354 5.722023 6.9347115
2.8617659 5.8476558 7.0141096
3.0711386 5.9227033 7.1484356
2.9580319 6.0284109 6.9296212
3.1466758 6.1159768 7.0306983
3.3765533 6.2033234 7.1732306
3.4839008 6.4062901 7.0776091
3.6539283 6.5063252 7.1476021
3.7695296 6.7493577 7.0201721
3.9571338 6.8021445 7.1549888
3.8608055 6.9094377 6.9513679
4.0856776 7.0509796 7.0346971
4.2877822 7.1274781 7.1603031
4.182168 7.204803 6.977365
4.35144 7.3262153 7.0252247
4.6024375 7.464355 7.138082
4.4539223 7.5150433 6.9388795
4.6633506 7.6469417 7.0164094
4.8491282 7.7206941 7.1284337
4.7432499 7.8200984 6.923151
4.9752116 7.9397812 7.03543
5.1665387 8.0366144 7.1299248
5.0635009 8.125576 6.9379249
5.2606401 8.2284079 7.0322318
5.4735403 8.3196201 7.1539207
5.3490672 8.4360704 6.9129968
5.584105 8.517127 7.0669785
5.7629447 8.5970392 7.165905
5.692863 8.7316227 6.9612398
5.8692179 8.8020802 7.0671372
6.0817714 8.9494734 7.1322975
6.168612 9.1553221 7.0132904
6.369041 9.2446051 7.1244359
6.2841415 9.3455067 6.9386349
6.4905844 9.4377575 7.0528269
6.673511 9.5509796 7.1225319
6.5613618 9.6266928 6.934669
0.35347545 2.9165192 7.4369564
0.45563072 3.1385274 7.3171043
0.68352002 3.2217669 7.4617534
0.57815337 3.3379047 7.2402482
0.76037604 3.4270585 7.3333182
0.97078967 3.517612 7.4531765
0.86879498 3.631999 7.2367949
1.0684611 3.7389839 7.3294783
1.2637129 3.8386869 7.4250255
1.1622869 3.9374681 7.2248192
1.3918394 4.0561924 7.3356485
1.5868497 4.1639218 7.4229279
1.4847393 4.249609 7.2351303
1.6893178 4.3591795 7.3301382
1.8960705 4.4369688 7.4591012
1.779336 4.5273881 7.2519479
1.960799 4.6457605 7.3150377
2.2086761 4.7532597 7.4554167
2.0479035 4.8293743 7.2185287
2.2735291 4.9443126 7.3292174
2.5020058 5.0699825 7.4320235
2.3824966 5.1167822 7.2657151
2.5681782 5.2228699 7.3453074
2.7724528 5.3353753 7.4370775
2.6840389 5.4433951 7.240644
2.8527644 5.5106411 7.342123
3.0568571 5.6258183 7.4310389
2.9637361 5.7296629 7.2340736
3.1662772 5.8571377 7.3091407
3.3915548 5.9458928 7.445662
3.295785 6.0453601 7.2504244
3.5011952 6.1487274 7.352468
3.6754794 6.2606645 7.4148154
3.5753641 6.3190522 7.2563119
3.7544482 6.4333954 7.3210526
3.9825897 6.5520439 7.4305458
4.0675569 6.7204928 7.347064
4.2938786 6.8359089 7.4579692
4.1903276 6.945385 7.2449431
4.3543863 6.9953356 7.3590503
4.5794826 7.1480317 7.4314513
4.4801769 7.2651892 7.2149882
4.6603584 7.3311872 7.3291721
4.8603916 7.4553547 7.4050379
4.7727799 7.5517306 7.2210503
4.9531937 7.626091 7.3271022
5.1385655 7.6877208 7.4508452
5.0686712 7.8331666 7.2355042
5.2916389 7.9397655 7.3518729
5.4994979 8.0673494 7.432148
5.5655861 8.2445488 7.3210378
5.7740569 8.3227596 7.4512963
5.6145015 8.4111881 7.2033138
5.8844852 8.5200615 7.3644233
6.0566735 8.6545343 7.4021392
5.9869394 8.7520847 7.2348547
6.1719346 8.8466959 7.3252387
6.358541 8.9477444 7.4107957
6.2908344 9.0599499 7.2308836
6.4795704 9.1325121 7.3470578
6.6465535 9.2031164 7.4434371
6.7411714 9.4167414 7.32443
6.9655724 9.5528517 7.4127197
6.8754077 9.6498137 7.2255936
0.34965098 2.638814 7.7108374
0.29375851 2.761838 7.5319209
0.44741377 2.8038425 7.6435719
0.62812865 2.947068 7.6810608
0.58406401 3.013582 7.5704818
0.77534205 3.1455123 7.6298294
0.98969382 3.2651501 7.7245436
0.87042999 3.34024 7.53019
1.0615129 3.4292493 7.6322632
1.2622831 3.5451376 7.717145
1.1906459 3.6654069 7.5252385
1.3467729 3.7373872 7.6093864
1.5820445 3.8396456 7.7423983
1.430017 3.9208901 7.5091281
1.6907152 4.0528693 7.637846
1.8627402 4.1275468 7.7351933
1.786688 4.235158 7.5515299
1.9591377 4.3442025 7.6149349
2.1570544 4.4310946 7.7259607
2.046675 4.5433159 7.5033588
2.2554886 4.6322255 7.6232629
2.4921837 4.7237253 7.7684579
2.3668559 4.859417 7.5074391
2.5681436 4.9640799 7.6040645
2.7850504 5.0511661 7.7338843
2.8268745 5.2052608 7.621613
3.0575416 5.3495889 7.707953
2.9341793 5.4071417 7.5270381
3.1502745 5.5243163 7.6259584
3.3575099 5.6224518 7.7350583
3.2932789 5.7856779 7.5076008
3.4649489 5.8282237 7.6367259
3.673672 5.9513268 7.7223458
3.5834725 6.0342655 7.5492067
3.7824554 6.1396942 7.6427598
3.9595435 6.2483678 7.7111754
4.0766978 6.421248 7.6554499
4.2757668 6.53863 7.7371368
4.1976528 6.6477199 7.549933
4.3425355 6.7365127 7.6060233
4.5851712 6.8406305 7.7445402
4.6576672 7.0343113 7.6233554
4.8861742 7.1297164 7.7564573
4.7685556 7.2300773 7.5384789
4.9541183 7.3258519 7.6282654
5.1975007 7.4426842 7.7548165
5.0668788 7.507462 7.5594168
5.2675214 7.6204472 7.6470752
5.4656625 7.7330513 7.7326112
5.3619032 7.827075 7.5348282
5.5376821 7.8937025 7.6439795
5.7574759 8.0076551 7.7498198
5.6808672 8.1091948 7.571672
5.8621573 8.2437429 7.6184144
6.0395036 8.2893362 7.7501669
5.9788713 8.4468231 7.5320473
6.1500907 8.5317268 7.6183639
6.3398829 8.6352444 7.7046371
6.2753162 8.7216339 7.5536823
6.4545779 8.831851 7.6227269
6.656816 8.9340439 7.7227726
6.582006 9.0195808 7.5624256
6.7930627 9.1458426 7.6472168
6.9625916 9.2234926 7.7390995
6.8876052 9.3609533 7.5266509
7.0753946 9.440196 7.6351986
7.2769217 9.5381031 7.7388186
7.1477203 9.6232777 7.5244436
0.33775362 2.3449249 7.9928293
0.43863904 2.5315864 7.9070539
0.67113996 2.6696794 8.001461
0.56994665 2.7418692 7.8280773
0.77874583 2.8311303 7.9476156
0.98200005 2.9430611 8.0389395
0.8853265 3.0492954 7.8360314
1.05959 3.1270599 7.9325294
1.2624238 3.2153072 8.0471163
1.11437 3.313488 7.8008809
1.3740664 3.4205515 7.9535151
1.531804 3.444669 8.0871353
1.4747307 3.6327841 7.8419466
1.6635518 3.7396886 7.9238625
1.8666275 3.8243005 8.0423269
1.7509545 3.9104848 7.8404689
1.9883344 4.0370698 7.9512644
2.1837347 4.1335707 8.0501642
2.0730305 4.2192144 7.8538156
2.2991803 4.3428831 7.9562974
2.4710279 4.452857 8.0181704
2.570369 4.638021 7.9323487
2.7566447 4.7308969 8.0257483
2.678246 4.819643 7.858603
2.863548 4.9276438 7.9359031
3.0622888 5.0047536 8.0575361
2.9742019 5.1244812 7.849721
3.1707599 5.2422132 7.9285455
3.3532555 5.3436532 8.0096025
3.4639413 5.536365 7.9275751
3.6554368 5.6072202 8.0482168
3.570292 5.7351599 7.8351316
3.7840619 5.839632 7.9444304
3.9784772 5.9716239 8.0068531
4.0706191 6.1520772 7.918541
4.2564359 6.2250471 8.0313892
4.1819682 6.343431 7.8385372
4.3684912 6.4280686 7.9404225
4.6073923 6.5458183 8.061574
4.49367 6.6694398 7.8242311
4.6856012 6.7664461 7.9191551
4.8759823 6.835712 8.0402708
4.9855871 7.0335364 7.9520512
5.1990771 7.1577868 8.0412903
5.0943208 7.2737689 7.8205519
5.2895937 7.3444605 7.9451318
5.4599509 7.4239154 8.0360346
5.376308 7.5551891 7.8211188
5.5898132 7.6562233 7.9335899
5.7630372 7.7047744 8.0582638
5.8911419 7.9448762 7.9462657
6.0761833 8.0485268 8.0276575
5.963665 8.1635237 7.8001409
6.1591434 8.2400923 7.9190512
6.402689 8.33325 8.0694389
6.4508133 8.531971 7.9188418
6.6493177 8.5982952 8.0510216
6.5791779 8.7231979 7.855979
6.7786384 8.8656931 7.9129453
6.9816222 8.9463434 8.0352802
6.8954792 9.0019674 7.8935108
7.0755839 9.1401739 7.9354091
7.2523985 9.2330961 8.0193024
7.1498208 9.3211288 7.8286934
7.3645453 9.4462261 7.9183197
7.5712547 9.5290251 8.0422297
7.4565711 9.6255798 7.8309922
0.414673 2.0468159 8.3678579
0.44410232 2.2307792 8.2133236
0.65891677 2.349369 8.3095474
0.55934602 2.4285491 8.1307974
0.7661764 2.5511768 8.2149992
0.99420738 2.6508861 8.3433208
0.88857597 2.7339909 8.1545849
1.0426176 2.8190322 8.2235842
1.2738864 2.9360473 8.3378391
1.1544085 3.0178425 8.1365662
1.3842375 3.1375573 8.2466803
1.5953104 3.2444649 8.3508453
1.4561834 3.3365281 8.1196556
1.6796894 3.4334939 8.2461958
1.833912 3.5147996 8.3191128
1.7814131 3.6318142 8.1495991
1.9743483 3.7614074 8.2129412
2.1843164 3.8561804 8.3281355
2.0638502 3.9262359 8.1376133
2.2523618 4.0325947 8.2197676
2.4934509 4.1450424 8.3484087
2.3506019 4.2019868 8.1486149
2.5639734 4.3402677 8.2237043
2.7756817 4.4244761 8.3512049
2.6857536 4.5619626 8.1237917
2.8954961 4.6570539 8.2384424
3.037483 4.7326913 8.3047915
2.9683461 4.812335 8.1560106
3.1565266 4.9330521 8.2234735
3.3327534 5.0201793 8.3125744
3.2496426 5.1310563 8.1185865
3.507489 5.2704463 8.2370424
3.6646798 5.3351769 8.3295021
3.5791321 5.4561892 8.1229439
3.7635686 5.5731888 8.1903801
3.9600868 5.6407809 8.3193064
3.8720243 5.7250543 8.1469698
4.0621791 5.8344851 8.2276945
4.2877846 5.9261866 8.3615971
4.1574898 6.0345368 8.1229525
4.3567157 6.136796 8.2199202
4.5479088 6.2165971 8.3313122
4.4854078 6.3112354 8.1741714
4.6870871 6.4418645 8.245223
4.8336754 6.512517 8.3211575
4.7516804 6.642807 8.1088734
4.9674516 6.7180786 8.2493734
5.1882896 6.864706 8.3235846
5.0854259 6.952312 8.1331148
5.2837281 7.0626869 8.2210417
5.4409876 7.1369624 8.3040257
5.3460312 7.2251816 8.1208496
5.5968108 7.3395777 8.2572336
5.7493281 7.4296842 8.3196449
5.6731362 7.5550461 8.1180897
5.8697124 7.6491528 8.2205591
6.0425973 7.7386637 8.3039341
5.9510722 7.8320918 8.1189804
6.1968384 7.9363279 8.2605104
6.3264995 7.998312 8.328187
6.2563362 8.1298113 8.1265249
6.4334989 8.2001038 8.2333937
6.6386051 8.3092384 8.3293657
6.5621529 8.4060087 8.1561451
6.7464166 8.5085859 8.2378302
6.9423389 8.6459265 8.2964106
6.8852091 8.7261944 8.1590147
7.0322185 8.8326836 8.1995363
7.2510576 8.8989582 8.3521013
7.1646357 9.032692 8.1319437
7.3552518 9.1390753 8.2161779
7.5709729 9.2373428 8.3336296
7.460022 9.3307228 8.1293001
7.6553082 9.4394674 8.2158422
7.8683996 9.5127106 8.355689
7.7899165 9.6430473 8.1468687
7.9439735 9.6905165 8.253459
0.36633542 1.7354482 8.630887
0.47642949 1.9330653 8.5433655
0.65693051 2.0046177 8.6523123
0.52669197 2.1015429 8.425149
0.7299574 2.2002182 8.5297394
0.95668375 2.3366971 8.6199865
1.0509189 2.5263896 8.5245295
1.2258686 2.595345 8.6305246
1.13024 2.708559 8.4216814
1.3830352 2.8145521 8.5684834
1.5764207 2.9304888 8.6459322
1.446543 3.0202379 8.4263048
1.6810865 3.1401663 8.5409203
1.8557543 3.2397735 8.6159811
1.7890908 3.3446527 8.444438
1.9645288 3.4392715 8.5252571
2.1293764 3.4938047 8.6355715
2.065835 3.651536 8.414299
2.2729702 3.7376831 8.5352869
2.442982 3.8305104 8.6124716
2.3695116 3.9214895 8.4480209
2.5593812 4.0432849 8.5160961
2.7541175 4.1248183 8.6292982
2.8576031 4.3210068 8.5365973
3.1331613 4.471149 8.6620131
2.9663744 4.5337496 8.4326248
3.1564193 4.6283836 8.5280352
3.3524439 4.7386761 8.6137676
3.4671776 4.964788 8.5023899
3.6686773 5.0511584 8.6175194
3.5424662 5.1189799 8.4234858
3.7797308 5.2265725 8.5531578
3.9790261 5.3445306 8.6344957
3.8034911 5.4027672 8.4007244
4.0933127 5.5572481 8.5360641
4.2906189 5.6678605 8.6227589
4.1827545 5.7290549 8.4536991
4.3376265 5.8201632 8.5174627
4.5640464 5.9503384 8.6137094
4.6677184 6.1461644 8.521554
4.8500772 6.1927395 8.6573391
4.769598 6.3387532 8.4308443
4.9409771 6.4061251 8.534853
5.1686916 6.5241833 8.6445074
5.0727153 6.6326842 8.4400301
5.2879481 6.7443571 8.5435915
5.4581547 6.8528557 8.605299
5.561192 7.0333047 8.5278873
5.7825961 7.1505318 8.6320648
5.689466 7.2832518 8.4062147
5.9059377 7.3452811 8.5606585
6.0977859 7.4455123 8.6522741
5.943058 7.5401778 8.4028797
6.1548157 7.6493545 8.5054607
6.3437767 7.723114 8.6206636
6.2905788 7.8903971 8.4001818
6.4610443 7.9272404 8.5338039
6.6948948 8.0442953 8.6505985
6.5766139 8.1354504 8.441164
6.7549725 8.2197781 8.5351944
6.9345469 8.3353653 8.5991812
6.8809991 8.4754066 8.405592
7.0571842 8.5025158 8.5546694
7.2763672 8.6569042 8.619463
7.1931691 8.7531385 8.4400301
7.374259 8.8294277 8.5448322
7.5454063 8.9202194 8.6251888
7.4868541 9.0486803 8.4381733
7.6513391 9.1471033 8.5042362
7.8542495 9.2527122 8.6015377
7.7273755 9.3190384 8.4083366
7.9952693 9.4768 8.5184708
8.1848269 9.5379734 8.6468525
8.077219 9.6670647 8.4101543
8.2485638 9.7316542 8.5169106
0.40302363 1.4658906 8.9371328
0.4586091 1.6266289 8.8319807
0.693268 1.7696623 8.923605
0.51748949 1.8067756 8.7107143
0.78611225 1.9393548 8.8467579
0.98422796 2.0543778 8.9298506
0.88867599 2.1113441 8.7773314
1.0671705 2.2202029 8.8469667
1.2613977 2.3597744 8.9016237
1.1606827 2.4315023 8.7291803
1.3753676 2.5291958 8.8461723
1.5572923 2.6032865 8.9540062
1.4703619 2.7418981 8.7284641
1.6766324 2.8641458 8.8124857
1.8414632 2.9172919 8.9241714
1.7833886 3.07024 8.7131481
1.9907658 3.1263995 8.8643665
2.1926389 3.241909 8.9507294
2.0655627 3.3429365 8.7226257
2.2399137 3.4149468 8.8249664
2.4843302 3.5329931 8.9513378
2.3519053 3.6112595 8.7406464
2.5671868 3.7349131 8.8322744
2.7590744 3.8424165 8.9166584
2.6768656 3.9150984 8.7617664
2.8731356 4.043427 8.8297081
3.0820725 4.1615586 8.9205141
3.1920791 4.3633409 8.8287382
3.3780518 4.4574986 8.9205532
3.2605505 4.5296926 8.7308578
3.4704399 4.6126976 8.8577433
3.6899624 4.7570853 8.9328766
3.560194 4.8548269 8.7053671
3.7614069 4.9625301 8.7988768
4.0055561 5.0486326 8.9569225
3.8601093 5.1370754 8.7230339
4.0598283 5.2336135 8.8262129
4.278863 5.3208957 8.9579678
4.1881394 5.4206705 8.7674685
4.3727202 5.5481429 8.8245764
4.5494614 5.555789 8.9936714
4.4785662 5.7437911 8.7347755
4.648694 5.8390808 8.8096132
4.8791637 5.9402003 8.9389639
4.7675152 6.0154061 8.7521086
4.9300275 6.1010108 8.8290157
5.1609201 6.226306 8.9346142
5.0726509 6.3365746 8.7360764
5.2705522 6.4263206 8.8442297
5.4703918 6.5503712 8.9200191
5.3554697 6.6283851 8.7270842
5.5748124 6.7289414 8.84587
5.7734981 6.8364043 8.9370928
5.6299739 6.9230442 8.7069283
5.8522696 7.0380154 8.8142538
6.0720205 7.125576 8.9464436
5.9342899 7.2074051 8.7268848
6.1576896 7.3194785 8.838212
6.3587737 7.4570212 8.9017525
6.2675161 7.5625939 8.7049217
6.4708304 7.6209602 8.8498707
6.6683898 7.7273088 8.941081
6.5965748 7.8273659 8.7692089
6.7514424 7.928596 8.8228464
6.9922371 8.0373993 8.9548378
6.8643894 8.1321449 8.7322445
7.0615206 8.219943 8.8415775
7.2910957 8.3404722 8.9506235
7.1239829 8.4239349 8.7000484
7.3579116 8.5302677 8.8276453
7.5696907 8.6275167 8.9421749
7.4651065 8.727252 8.737854
7.6718969 8.8277254 8.8441715
7.8468385 8.9238968 8.9229431
7.7465668 9.0257998 8.720767
7.9817982 9.1244154 8.8573828
8.1559505 9.2524586 8.903491
8.0406857 9.3139629 8.7267227
8.2974634 9.4714317 8.8260317
8.4702072 9.5219336 8.9482737
8.318965 9.6039257 8.7150393
0.38655961 1.1461452 9.2404146
0.4862836 1.3286182 9.1576653
0.67241955 1.4260322 9.2463875
0.59638602 1.562923 9.0334625
0.75772715 1.6592431 9.098485
0.95139086 1.7206829 9.2307072
0.87380201 1.8405811 9.0332212
1.0631671 1.9263849 9.1367826
1.2484776 2.057538 9.1909389
1.136793 2.1097541 9.0270395
1.3834736 2.2619712 9.1215038
1.5514845 2.2877183 9.2637663
1.470971 2.462852 9.0081186
1.6685625 2.539676 9.1288862
1.8597555 2.6223223 9.2374325
1.785603 2.7718821 9.0137215
1.9773263 2.8298051 9.147521
2.1845777 2.9368916 9.2476864
2.081274 3.0172789 9.0639954
2.2783556 3.1343338 9.144021
2.4624898 3.2451322 9.2173576
2.3820257 3.3347402 9.047286
2.5445452 3.4171827 9.1273623
2.7723444 3.5298092 9.2425346
2.6561656 3.6423399 9.0138254
2.8724217 3.7586083 9.1138134
3.0943158 3.8645368 9.2297783
2.9759381 3.9744649 9.0014725
3.1710775 4.0286093 9.1424675
3.3821888 4.1300068 9.252182
3.268023 4.2632699 9.0047531
3.4776261 4.3624468 9.1151791
3.6956754 4.4370527 9.2586222
3.5704746 4.5379105 9.0325642
3.7853901 4.6494431 9.1359472
4.0624828 4.7671199 9.2953625
3.8579574 4.8389177 9.0190392
4.0606222 4.9513712 9.109251
4.2472277 5.033494 9.2137327
4.1949558 5.1125588 9.0823975
4.3460007 5.2417865 9.1042128
4.5685468 5.3550076 9.2135391
4.4570699 5.4265046 9.0305643
4.6673274 5.5381522 9.1291752
4.8687515 5.6170616 9.251689
4.7655392 5.7334671 9.0320721
4.9540758 5.8415475 9.1125298
5.1635551 5.9035559 9.2599993
5.0819755 6.0515041 9.0304708
5.2346826 6.1027493 9.1319332
5.4549999 6.2206855 9.234314
5.3724952 6.352035 9.0204601
5.5837793 6.4571557 9.1266222
5.7586718 6.5009136 9.2577572
5.8594127 6.7312288 9.1281843
6.060575 6.8338723 9.2267027
5.9487901 6.936729 9.0120611
6.1665502 7.0231805 9.1433687
6.3423133 7.1024842 9.2398291
6.2411871 7.2247391 9.0164471
6.4643698 7.3360672 9.1283026
6.6411581 7.4627266 9.1784325
6.5530949 7.5190182 9.0340776
6.7660203 7.6449409 9.1210785
6.9726334 7.7314239 9.241209
6.865325 7.8481021 9.0172234
7.0713019 7.9229722 9.1483297
7.2342353 8.021822 9.2124128
7.171433 8.1464577 9.0249748
7.3282452 8.1966209 9.1316233
7.550807 8.3184023 9.2324057
7.6742096 8.5269995 9.1472139
7.8545351 8.5987101 9.255825
7.7933779 8.7505264 9.0428495
7.9678526 8.8369713 9.1308794
8.155158 8.9620152 9.1931438
8.0993853 9.0559607 9.0434246
8.2705021 9.1466742 9.1238298
8.5050554 9.2475872 9.2574682
8.3777065 9.3272066 9.0504999
8.5868454 9.4349566 9.1518879
8.7609348 9.5216141 9.2393198
8.670228 9.635232 9.034996
8.8804903 9.7529106 9.1275806
0.40042198 0.85631627 9.5441065
0.45527712 1.0406508 9.4146261
0.67677432 1.1532429 9.523531
0.59017706 1.2333314 9.3568459
0.77166092 1.3494523 9.4222088
0.96355635 1.389249 9.5743074
0.88179499 1.556841 9.324954
1.0596189 1.6374595 9.4221582
1.2922012 1.7618968 9.5303049
1.3541367 1.9183124 9.4358253
1.5609457 2.0211256 9.5398197
1.4616745 2.1486845 9.3129902
1.6554215 2.2486329 9.4067888
1.854148 2.3342314 9.5199165
1.7491003 2.4192057 9.329895
1.9345347 2.5185153 9.4160194
2.1891587 2.6143148 9.5748444
2.0461709 2.7051289 9.3410435
2.2541535 2.8297503 9.4244022
2.4832196 2.9604721 9.522748
2.3633919 3.0258064 9.3375854
2.5454233 3.1189988 9.4264259
2.7376544 3.2089677 9.5286865
2.6583135 3.337064 9.3212481
2.9001653 3.44877 9.4513969
3.1192801 3.5665245 9.5527554
3.1622627 3.7433355 9.4189262
3.38063 3.8365064 9.5441236
3.2614999 3.921787 9.3397131
3.4444916 4.018425 9.4260664
3.6514974 4.1246157 9.5268812
3.569725 4.2199969 9.3497276
3.780637 4.3370371 9.4435997
3.9512312 4.4475169 9.5037136
3.8213291 4.5042381 9.317091
4.054883 4.6178627 9.4370213
4.2736592 4.7366047 9.5370541
4.1617422 4.8366036 9.3251381
4.3568449 4.9274912 9.4293528
4.5859718 5.0408788 9.5450945
4.4336982 5.1268139 9.3068838
4.7157578 5.2741313 9.4416265
4.8682141 5.3350267 9.5331879
4.9513612 5.5385342 9.4128256
5.1856198 5.6507316 9.5348892
5.0702138 5.7547002 9.3155146
5.2801991 5.8543196 9.4258795
5.4544263 5.9033947 9.5510311
5.371902 6.0368218 9.3350801
5.5565786 6.1346459 9.4219341
5.7810926 6.23104 9.5500526
5.6443038 6.3358669 9.3084373
5.8605351 6.4284163 9.4321194
6.0868459 6.5416222 9.5452232
5.991467 6.631083 9.360384
6.1597748 6.7187219 9.4410515
6.3741016 6.8331075 9.5409946
6.2626572 6.9443941 9.3182631
6.4426875 7.0170135 9.4256773
6.6572385 7.1218853 9.5353527
6.5742631 7.2106409 9.3636217
6.7645621 7.3249931 9.4395685
6.9491491 7.4380341 9.5111141
6.8667769 7.563715 9.3030624
7.0524812 7.6252089 9.4272728
7.2655892 7.7259922 9.5395975
7.1567163 7.822998 9.3337173
7.3675694 7.9214597 9.4461098
7.595603 8.0256739 9.5699301
7.472796 8.1167316 9.3560648
7.6671786 8.2383366 9.4288425
7.8696842 8.3055439 9.5641413
7.767848 8.4256773 9.3421707
7.9668493 8.5403881 9.4264593
8.2019758 8.6506624 9.5513144
8.0822477 8.7232351 9.3590126
8.2730713 8.8339968 9.4390764
8.4475546 8.9651728 9.4823809
8.3892174 9.0100622 9.3791542
8.5743275 9.1497221 9.4246054
8.7722378 9.2090101 9.5632277
8.6548128 9.3388624 9.3159513
8.8560362 9.4330893 9.4229479
9.1344728 9.5841351 9.5503387
8.9618053 9.6072826 9.3545227
0.54814667 0.92649531 9.6216516
1.1566724 1.5240499 9.6326227
1.491294 1.8013951 9.6898975
1.7762641 2.131907 9.6443567
2.0150311 2.406626 9.6084051
3.2376609 3.6011505 9.6365108
3.4701288 3.7499413 9.7201881
3.5838964 3.9430389 9.6408577
3.8500082 4.2359958 9.6140127
4.0750947 4.3274031 9.7476912
4.1730332 4.5402079 9.6328259
4.4659739 4.8051682 9.6608057
4.7130542 5.103035 9.6100187
5.3378601 5.728271 9.6095886
5.9599161 6.3003378 9.6595774
6.2568922 6.6202064 9.6366844
6.8285928 7.2142568 9.614336
7.1713219 7.5314817 9.6398411
7.4897995 7.8290215 9.660778
7.7580538 8.1178894 9.6401644
8.0649595 8.4360485 9.628912
8.3347912 8.7090244 9.6257668
8.6735229 9.0327654 9.6407585
8.9463825 9.3294163 9.6169662
9.264802 9.6278419 9.63696
0.1040525 10 0.79279947
0 9.4659348 1.1273179
0.14169601 10 1.1324544
0 9.5164795 1.352218
0 9.8326244 1.3452255
0.105269 10 1.446933
0.44220948 10 1.3655615
0 9.1529655 1.548297
0 9.3736801 1.579138
0 9.7115459 1.6981148
0.041129332 9.9732513 1.6874456
0.50188446 10 1.6641126
0.72287971 10 1.6759206
0 8.7926407 1.8768497
0 9.163023 2.0605469
0 9.5397587 2.0080709
0.14745051 10 1.8618896
1.0688291 10 2.035517
1.2806644 10 1.9211115
0 8.3654461 2.3628395
0 8.4937983 2.2892926
0 8.9207935 2.1686161
0 9.2285233 2.2520695
0 9.3117523 2.376261
0 9.7225466 2.2385139
0.40779001 10 2.364042
0.811939 10 2.2301767
1.040027 10 2.2625563
1.327752 10 2.1844745
0 8.368989 2.5416887
0 8.5668049 2.5647626
0 9.2291126 2.5971656
0 9.4764481 2.5590708
0 9.7944794 2.5772769
0.20714401 10 2.629864
0.38615301 10 2.6193581
0.77887625 10 2.5548153
1.3568103 10 2.4761658
0 8.0014343 2.9288399
0 8.1325493 2.9509859
0 8.6440697 2.9651639
0 8.8232689 2.8561854
0 9.4243917 2.8465545
0.049962003 9.9793892 2.8622942
0.54226899 10 2.7105041
0.95257503 10 2.7393889
1.2980305 10 2.9760661
1.6434691 10 2.8556635
1.897238 10 2.887064
0 7.553515 3.0975089
0 7.9679947 3.0992908
0 8.853878 3.217777
0 9.1317158 3.2522941
0 9.8419437 3.145612
0.19503333 10 3.1833961
0.77856553 10 3.0878549
1.3923271 10 3.0812879
1.851951 10 3.247597
2.397712 10 3.0662391
0 7.6469679 3.4071245
0 8.0085258 3.4959311
0 8.313343 3.542552
0 8.9486732 3.5424311
0 9.2266216 3.491359
0 9.314292 3.5047576
0.017085001 10 3.3793631
0.530922 10 3.5562382
0.84041047 10 3.3925371
1.081635 10 3.437552
1.447405 10 3.5866981
1.699743 10 3.4297869
2.0054381 10 3.444901
2.3280489 10 3.5350821
2.5696414 10 3.4270802
0 7.1342788 3.8168399
0 7.253324 3.7792549
0 7.6312451 3.8160989
0 7.914947 3.883925
0 8.1673508 3.893044
0 8.6224918 3.8051524
0 9.5940666 3.8494561
0 9.8629694 3.7563424
0.085380673 9.983901 3.6296027
0.44265449 10 3.758976
0.71577549 10 3.6419501
1.006863 10 3.8762159
1.3789935 10 3.866807
1.7179805 10 3.6861374
1.8604105 10 3.775557
2.5941305 10 3.7027304
2.7830291 10 3.7183189
3.0630221 10 3.7169542
0 6.4505782 4.0462451
0 6.7655358 4.0283685
0 7.5595188 4.1982059
0 7.8381858 3.9051371
0 8.3217831 4.1068459
0 8.5466995 4.1898327
0 8.9793091 4.1543851
0 9.1232462 4.0823455
0 9.7239437 3.9774671
0.5033837 10 4.0591044
1.958178 10 4.0747151
2.275671 10 4.184556
2.5628572 10 4.1246085
2.7758136 10 3.9679232
0 7.3974075 4.3402524
0 7.7142682 4.3616867
0 8.3358307 4.3712397
0 8.4784927 4.3097682
0 8.7711668 4.3633475
0 9.3915205 4.3414116
0.106376 10 4.2315111
0.42655152 10 4.4189463
0.8077237 10 4.2873783
1.68172 10 4.4458489
2.1760449 10 4.3868799
2.6529884 10 4.3677216
2.8398762 10 4.282649
3.4746037 10 4.4329424
0 6.329762 4.6691279
0 6.7966938 4.6433849
0 6.9958344 4.7045326
0 7.323801 4.5356998
0 8.0683823 4.7480211
0 8.145854 4.6867542
0 8.5489826 4.687665
0 8.869278 4.5372329
0 9.4164772 4.6249852
0 9.6448202 4.7071629
0.44985899 10 4.5571952
0.75988901 10 4.524827
0.95564699 10 4.6625371
1.6348337 10 4.6704068
1.857969 10 4.6204319
2.264039 10 4.6825657
2.541163 10 4.5863681
2.8683014 10 4.6632142
3.8162484 10 4.6633072
0 6.3127885 4.9968262
0 6.7391305 4.9998775
0 7.0902133 4.9827056
0 7.359179 4.9091139
0 7.6270528 4.9720736
0 7.9854236 4.88937
0 8.2455511 4.937953
0 8.4117355 4.8015141
0 9.7882462 5.0233488
0.11669133 10 4.8839173
0.71769351 10 5.0197496
1.006469 10 5.0926828
1.6623541 10 4.9703612
1.9151859 10 4.9078646
2.1935608 10 4.9645844
2.403626 10 4.8059268
2.8941453 10 4.8384972
3.3515582 10 4.9029932
3.787879 10 5.0852189
4.1430521 10 5.0755301
4.2584052 10 4.9728618
0 5.4769707 5.1906996
0 5.8312836 5.200357
0 6.122561 5.2812071
0 6.3352208 5.369173
0 6.7741776 5.1882429
0 7.0989208 5.3112283
0 7.9549541 5.2793102
0 8.2549591 5.2356219
0 8.5613413 5.196732
0 9.0350533 5.117435
0 9.3060303 5.1578989
0 9.7667341 5.23035
0.1187625 9.9932804 5.2855463
0.47331452 10 5.2226877
0.79914701 10 5.1398425
1.0798315 10 5.1502132
1.201713 10 5.259191
1.822957 10 5.2682858
2.2954929 10 5.206429
2.585979 10 5.3879619
2.8740187 10 5.2288084
3.1576231 10 5.2107892
3.391206 10 5.2197809
3.8176689 10 5.1881123
4.0226307 10 5.2521605
4.3309598 10 5.1176891
0 5.2108622 5.4621301
0 5.414238 5.6626458
0 5.910141 5.597867
0 6.1309061 5.5701942
0 6.5364137 5.5682473
0 6.6654673 5.4379234
0 7.0955448 5.548955
0 7.368557 5.6991
0 7.6432247 5.6161013
0 7.8506341 5.5735164
0 8.6435757 5.5382128
0 8.767848 5.5480728
0 9.0010786 5.6254201
0 9.4844875 5.5235076
0 9.9564238 5.674983
0.42153835 10 5.5387864
0.85102099 10 5.5626721
1.140033 10 5.5026579
1.2685499 10 5.5321422
1.568851 10 5.4173198
1.863631 10 5.6065769
2.311615 10 5.5555305
2.5861764 10 5.6003323
3.2152927 10 5.4651399
3.5128591 10 5.5268879
3.864603 10 5.4282632
3.9977202 10 5.5745063
4.2728434 10 5.5524945
4.5142388 10 5.543457
4.9852362 10 5.5955839
0 5.0918188 5.8269458
0 5.156889 5.78719
0 5.6775241 5.719254
0 6.3362122 5.929379
0 6.7895021 5.7996302
0 7.0676107 5.7736545
0 7.470541 5.7703609
0 7.6491208 5.9429669
0 7.8671293 5.8980255
0 8.597353 5.8142886
0 8.8857174 5.8222675
0 9.4712601 5.9480066
0 9.7403259 5.8759136
0.13683467 10 5.7988873
1.0764908 10 5.8984895
1.3250297 10 5.8733764
1.6540755 10 5.7053947
1.804484 10 5.7667251
2.2876403 10 5.8678226
2.6108966 10 5.7520542
3.0800116 10 5.9256124
3.5692151 10 5.799087
3.9991021 10 5.9172444
4.552186 10 5.8821921
0 4.4202356 6.1647491
0 4.6712604 6.234767
0 4.9956474 6.1393414
0 5.2806864 6.1273737
0 5.7546535 6.1535211
0 6.068017 6.1329846
0 6.4098258 6.2304311
0 6.6946535 6.0513501
0 6.9149919 6.1174459
0 7.4485941 6.2928772
0 7.6776609 6.0909457
0 7.9818611 6.1955194
0 8.8984089 6.0635123
0 9.1073704 6.1776571
0 9.6185541 6.2472339
0.093901001 9.9549923 6.1783791
0.476605 10 6.1500359
0.72631997 10 6.1436806
0.94124103 10 6.1523418
1.285314 10 6.089952
1.689036 10 6.2131891
1.9611723 10 6.1741223
2.5178461 10 6.0891662
2.966289 10 6.2332468
3.48998 10 6.1422272
4.1142249 10 6.0959601
4.2304897 10 6.0727334
5.2118196 10 6.1931458
0 4.3305664 6.4475255
0 4.7622681 6.5793891
0 5.0880928 6.3670254
0 5.2783132 6.345335
0 5.4856319 6.5040278
0 5.899694 6.5986042
0 6.2349057 6.5226088
0 6.4167886 6.4226108
0 6.74581 6.4851661
0 7.118784 6.5257349
0 7.3760242 6.4274769
0 7.8282628 6.3177691
0 8.1217365 6.5686369
0 8.8109283 6.4760933
0 9.218399 6.4883685
0 9.3340359 6.3634052
0 9.7598877 6.3976469
0.103534 9.9749355 6.4376173
0.33745199 10 6.5936589
0.77364826 10 6.4597197
0.90953302 10 6.363883
1.4346859 10 6.4624319
2.059134 10 6.574502
2.4028251 10 6.5945058
3.203423 10 6.3517408
3.598664 10 6.5423608
3.6838017 10 6.4791217
4.5159278 10 6.4622021
5.2002492 10 6.3993173
5.564373 10 6.4196014
0 4.0370727 6.7634888
0 4.4320951 6.6449308
0 4.6905107 6.765512
0 5.0013103 6.7418613
0 5.2254667 6.7768984
0 5.5737114 6.7741446
0 6.0252891 6.6569529
0 6.4756017 6.7216516
0 6.6708097 6.7545547
0 7.269443 6.6667528
0 7.600821 6.7550449
0 7.9616098 6.806345
0 8.2656908 6.7611256
0 8.641901 6.6399832
0 8.878644 6.6708121
0 9.4972181 6.7950897
0.055647001 10 6.7324648
0.51361299 10 6.869081
0.999852 10 6.727984
1.7301919 10 6.6548629
1.9931808 10 6.7894506
2.2802129 10 6.8106661
2.4245341 10 6.8372068
2.841198 10 6.812572
3.2130849 10 6.7332311
3.4168451 10 6.6975322
3.7376146 10 6.6456661
4.0007267 10 6.686697
4.604856 10 6.6215868
4.9729781 10 6.6953506
5.1727161 10 6.7256169
5.7607369 10 6.6392431
0 3.8072922 7.0364575
0 4.0229788 7.0100522
0 4.3595901 6.924643
0 4.7875319 7.0543952
0 4.9810896 7.0606604
0 5.3351626 7.137816
0 5.5368381 7.0036731
0 6.670115 7.0858488
0 7.2903666 7.0408821
0 7.6958518 7.0778761
0 7.8332357 7.0504589
0 8.2948627 7.0218625
0 8.6264133 7.0310454
0 8.7728357 7.0104303
0 9.136631 6.984643
0 9.4588871 6.9930539
0.13629834 10 7.0183883
0.4516415 10 7.0698113
1.1741281 10 6.906611
1.4495549 10 7.1081614
2.0081444 10 7.0665216
2.5466723 10 7.0330696
3.1249886 10 7.0545254
3.5742323 10 7.0442214
3.8553441 10 7.0061302
4.4742651 10 7.0849819
4.5744429 10 6.9688148
4.835052 10 7.0745711
5.233397 10 7.0821571
5.5460348 10 6.990623
5.9445105 10 7.0526094
6.2177734 10 7.0162983
6.3798256 10 7.1104145
0 3.570076 7.4782419
0 3.7242026 7.3400364
0 4.483007 7.3969779
0 4.6168184 7.4131079
0 4.9848404 7.3379407
0 5.2369876 7.3824539
0 5.6589208 7.4148331
0 5.7974906 7.3588085
0 6.0865631 7.3399301
0 6.7690268 7.3522887
0 7.0673246 7.4471641
0 7.3406353 7.3310442
0 7.5682707 7.3071041
0 8.0397539 7.4661961
0 8.3212948 7.2516451
0 8.5027857 7.370893
0 8.960741 7.2176342
0 9.3230686 7.2913961
0 9.6577282 7.300704
0.1553005 10 7.2939653
0.48586249 10 7.2418633
1.41155 10 7.2925463
1.5156369 10 7.3755026
2.0152423 10 7.3645968
2.2801659 10 7.2127719
2.6481991 10 7.4639878
3.121707 10 7.3266182
4.0800891 10 7.3235765
4.3602014 10 7.3910427
5.0058846 10 7.3145132
5.2587166 10 7.3497458
5.6001558 10 7.3991747
5.8503828 10 7.3370419
6.1282434 10 7.3358603
6.3976531 10 7.2801981
6.6942778 10 7.3673353
0 2.8510089 7.7699089
0 3.2602029 7.7882748
0 3.7121844 7.61549
0 4.1006293 7.6091657
0 4.27105 7.5141711
0 4.652967 7.6549168
0 4.9468651 7.6322179
0 5.3396568 7.5309348
0 5.8484564 7.5786371
0 6.1805754 7.5874557
0 6.4031053 7.6797814
0 6.768569 7.5204358
0 6.9501538 7.552393
0 7.7195067 7.6429491
0 7.9500031 7.7958312
0 8.1270113 7.797544
0 8.5113363 7.565619
0 8.7357817 7.576673
0 9.2103443 7.671854
0 9.8750591 7.7700481
0.47147623 10 7.654705
0.85542399 10 7.772193
1.063379 10 7.5826344
1.307255 10 7.5574036
1.946314 10 7.774765
2.2323227 10 7.6409492
2.5694914 10 7.7536931
2.999691 10 7.6017141
3.1029778 10 7.6424603
3.4736321 10 7.6898131
3.9189086 10 7.6997652
4.538228 10 7.5360298
5.0078101 10 7.6383796
5.2920918 10 7.6493044
5.814014 10 7.581131
6.7154179 10 7.6132531
0 2.8291721 7.9760613
0 3.093385 8.0382271
0 3.7039626 7.9675932
0 4.0719814 8.0145788
0 5.055655 7.8388252
0 5.103641 7.8461161
0 5.9074497 7.9582701
0 6.1181149 8.0234356
0 6.3765836 8.0183678
0 7.0498872 8.0013161
0 7.6330109 7.835741
0 7.9209571 7.9343777
0 8.2785797 8.0601006
0 8.5226679 8.095109
0 8.935462 7.9509201
0 9.1504707 7.8778129
0 9.7211647 7.9327822
0.21260233 10 7.9671664
0.43381351 10 7.9314675
0.677284 10 7.96069
1.247741 10 7.881217
1.659819 10 8.0174952
2.3486454 10 7.9064426
2.479641 10 7.8782711
2.8157361 10 8.0468092
3.0856481 10 7.9266739
3.4742465 10 7.9115725
3.7574821 10 7.9495683
4.0048385 10 7.975884
4.6455879 10 7.8797879
4.9598022 10 7.9965763
5.3593349 10 7.8425632
5.6143789 10 7.8626604
5.83533 10 7.9293551
6.4213004 10 7.9696116
6.7095418 10 7.923564
7.030777 10 7.8689828
0 2.8408394 8.2687368
0 3.1421483 8.1991978
0 3.7651298 8.1481361
0 4.1729941 8.2778511
0 4.5974264 8.3745289
0 4.9221253 8.3079805
0 5.2277026 8.2707663
0 5.5359063 8.1447735
0 6.0677881 8.396347
0 6.4361472 8.3575068
0 6.6965656 8.203083
0 7.1158934 8.2713203
0 7.2272863 8.2617149
0 7.7034302 8.3124571
0 8.0318565 8.3685522
0 8.2075224 8.2369528
0 8.6213951 8.2016993
0 8.7031155 8.3184338
0 9.1388187 8.1794281
0 9.737505 8.1745787
0.082906 9.9821529 8.342741
0.484676 10 8.2569504
0.74742949 10 8.1602859
1.104607 10 8.3804235
1.2653947 10 8.2987728
1.6326946 10 8.2724638
1.9448092 10 8.225831
2.2867129 10 8.3485584
2.5842357 10 8.228899
3.118782 10 8.2726269
3.8318627 10 8.2179222
3.961283 10 8.241951
4.7826252 10 8.1346836
5.6544209 10 8.1718845
6.1880012 10 8.3767319
6.4105353 10 8.192296
6.86415 10 8.3816767
7.0891819 10 8.1134472
7.4259129 10 8.3567963
7.7393351 10 8.3396988
0 2.233845 8.5209637
0 2.542439 8.6831341
0 3.4924936 8.5785179
0 3.7747619 8.5155964
0 4.0160084 8.5770597
0 4.4227881 8.4108686
0 4.787364 8.4406013
0 4.9522772 8.5646582
0 5.214335 8.6164503
0 5.8759999 8.5720043
0 6.1075139 8.5342855
0 6.592802 8.4882431
0 6.8482251 8.5235062
0 7.3857517 8.5500803
0 7.6050482 8.6459589
0 7.8722215 8.509366
0 8.3509932 8.4157763
0 8.4914503 8.5499487
0 8.9753828 8.5784845
0 9.2048235 8.6554556
0 9.7555332 8.5549564
0.50729603 10 8.5739746
0.78085697 10 8.5874443
0.99052954 10 8.6590958
1.2203259 10 8.5463562
1.6924224 10 8.5797997
1.851511 10 8.5006084
2.231617 10 8.5007153
2.434581 10 8.5612421
2.876261 10 8.656374
3.148726 10 8.6297789
3.3715894 10 8.4674835
3.7541554 10 8.461854
4.3489242 10 8.520668
4.7438869 10 8.4478951
5.5098763 10 8.5217381
5.7651367 10 8.6151047
6.2595234 10 8.5822239
6.4139781 10 8.6492825
6.7119231 10 8.589241
7.0152001 10 8.4512472
7.3927817 10 8.4844275
7.7530189 10 8.4588728
0 2.2914574 8.8368797
0 2.5707841 8.8994999
0 2.8665578 8.8925953
0 3.1363499 8.8686037
0 3.5152161 8.9164705
0 3.6366601 8.9142027
0 4.1091566 8.8757401
0 4.460423 8.9315128
0 4.5326619 8.8981457
0 4.8300791 8.85923
0 5.3049579 8.9052124
0 5.9634018 8.9032803
0 6.7296424 8.9226856
0 7.0930619 8.7600679
0 7.375978 8.8798742
0 8.0841827 8.8527575
0 8.2383003 8.7558403
0 8.5875311 8.9008684
0 8.9828739 8.7801456
0 9.1559677 8.8668823
0 9.4504871 8.7999268
0 9.6948957 8.8409185
0 9.9315739 8.7242937
0.37275133 10 8.8562479
1.0034965 10 8.8969707
1.6362538 10 8.8371201
1.9801836 10 8.9718933
2.520695 10 8.8917017
2.774332 10 8.7902508
3.2768595 10 8.9081306
3.3290949 10 8.9259682
3.729161 10 8.7950649
4.0539174 10 8.8896542
4.3872557 10 8.9363613
4.6832314 10 8.7154102
4.8614221 10 8.7704849
5.2654276 10 8.7832394
5.6949949 10 8.9326868
6.0834899 10 8.8055038
6.5130997 10 8.9747677
7.0442619 10 8.8807983
7.2506051 10 8.9979496
7.6283283 10 8.8012524
7.9710269 10 8.8198433
8.1448851 10 8.8792591
0 1.6877075 9.2382717
0 1.966436 9.0885572
0 2.8936629 9.160676
0 3.5679171 9.2888718
0 3.8604839 9.1984501
0 4.5933571 9.1772451
0 5.5843067 9.2858419
0 6.4138885 9.1987467
0 6.9078999 9.005456
0 7.2131414 9.0802097
0 7.7382541 9.248107
0 7.9274797 9.1014137
0 8.2824841 9.1608353
0 8.5461931 9.1912928
0 9.0640182 9.257987
0 9.6827803 9.0401649
0.052251 9.9986 9.1512794
0.41201198 10 9.1228018
1.0232135 10 9.1391258
1.3114835 10 9.0902214
1.859771 10 9.1962442
2.3769181 10 9.1501017
3.000001 10 9.2498055
3.4530675 10 9.055747
3.748842 10 9.0518856
4.5090809 10 9.2315083
4.9420376 10 9.1631784
5.2116909 10 9.1230469
5.5659428 10 9.0263348
5.8275108 10 9.0715847
6.5632148 10 9.150465
7.1475949 10 9.084156
7.3616343 10 9.2029743
7.6945362 10 9.0774012
7.9431562 10 9.1516638
8.228591 10 9.1553097
0 1.401453 9.4564209
0 1.7149267 9.4200926
0 2.320199 9.407712
0 2.457263 9.4941072
0 3.044801 9.3867817
0 3.356631 9.5300264
0 3.723227 9.5387878
0 4.0107784 9.4780483
0 4.352437 9.3349504
0 4.687037 9.4366989
0 4.9761114 9.4991779
0 6.5273352 9.4519768
0 7.0571036 9.3754492
0 7.3983727 9.4586849
0 7.7265158 9.4759541
0 8.0935459 9.4907904
0 8.3344231 9.4038801
0 8.5465794 9.3927526
0 8.8156366 9.4265862
0 9.4062805 9.5640831
0.13099334 9.9715672 9.5670748
0.71318001 10 9.4550171
1.075821 10 9.3899889
1.473744 10 9.5762196
1.613992 10 9.3960066
1.84828 10 9.4385414
2.380857 10 9.4207211
2.560823 10 9.4222488
4.2454295 10 9.5716534
4.5984178 10 9.4085169
4.9089522 10 9.4714699
5.3044949 10 9.4844847
6.113977 10 9.4249153
6.4549818 10 9.4412994
6.78443 10 9.5626879
7.0532508 10 9.4749031
8.2660074 10 9.4333887
0 0.96920365 9.7779465
0 1.295302 9.6525574
0 1.614962 9.7063951
0 1.8639908 9.6874256
0 2.2452674 9.6985502
0 2.8565326 9.79245
0 3.149662 9.7265854
0 3.5559609 9.7583952
0 3.6910689 9.6135607
0 4.1070304 9.7542171
0 4.4457889 9.7957754
0 4.6419258 9.8534584
0 4.8984194 9.7309647
0 5.1876121 9.7275324
0 5.5256262 9.7250328
0 5.7360778 9.6603794
0 6.1197515 9.8872204
0 6.7507429 9.8543062
0 6.9609261 9.8524361
0 7.4548202 9.7861614
0 7.6133528 9.7887974
0 8.2967873 9.7347212
0 8.5928411 9.6891403
0 8.9542017 9.7089262
0 9.8856087 9.6412716
0.068936996 10 9.6656036
0.41440499 10 9.7375393
0.75334197 10 9.7558212
0.95054501 10 9.7637873
1.329669 10 9.7616711
1.6414859 10 9.7605124
1.809556 10 9.6203585
2.2446191 10 9.7576065
2.5235825 10 9.8361626
2.9985039 10 9.8848896
3.061512 10 9.7482185
3.4410825 10 9.8112783
3.7945006 10 9.7870092
4.009109 10 9.7549648
4.374897 10 9.7418842
5.0423694 10 9.727562
5.2543278 10 9.7659912
5.4840751 10 9.7263966
5.9133396 10 9.7875929
6.4103675 10 9.6519547
6.697577 10 9.6944437
6.9432502 10 9.7535315
7.3107257 10 9.724926
8.0359192 10 9.6546984
8.1639547 10 9.7927475
8.6594172 10 9.7250175
8.7915316 10 9.6745625
9.0282755 10 9.7733736
0.26762101 0.88759398 10
0.096306331 1.0234553 9.9861794
0.0874255 1.448794 9.9967632
0.49723765 1.3461307 10
0.6406185 1.271897 10
0.035783753 1.6053988 9.9748745
0.318818 1.6861891 10
0.7336815 1.5908185 10
1.014344 1.7713743 10
0.01421 1.8140399 10
0.35378098 1.8223455 10
0.81287599 1.9642601 10
1.166608 1.894842 10
1.3289635 2.0660369 10
0.22387235 2.2262273 10
0.525913 2.270812 10
0.66496754 2.2877946 10
1.099522 2.33233 10
1.3060014 2.26543 10
1.5494111 2.310421 10
0.046933498 2.6651695 9.9626799
0.33553901 2.5540807 10
0.68434 2.4433529 10
1.058933 2.6601019 10
1.4402343 2.6361175 10
1.6162143 2.4968379 10
0.214524 2.8815789 10
0.68847096 2.8637559 10
1.188652 2.7991869 10
1.676052 2.796809 10
1.9417895 2.9185255 10
0.133812 3.0642433 9.9700832
0.69363898 3.1976089 10
1.3417881 3.2344356 10
1.9994128 3.1349392 10
2.143398 3.2301719 10
0.12549166 3.4466531 9.9947014
0.49074847 3.5102739 10
1.160403 3.4761539 10
1.7506665 3.4167371 10
1.952139 3.4755247 10
2.318553 3.4831643 10
2.5795584 3.390013 10
2.893327 3.511874 10
0.07023 3.703999 10
0.35616699 3.747314 10
0.70471597 3.7512164 10
0.99001753 3.820199 10
1.4615999 3.60653 10
1.652086 3.727505 10
1.903968 3.693821 10
2.2552509 3.7938495 10
2.6505949 3.8300872 10
2.7657304 3.7658687 10
3.0926476 3.754051 10
0.55316401 3.9697981 10
0.72204101 4.1201119 10
0.92484999 3.9262819 10
1.262032 4.1926241 10
1.5549253 4.0671859 10
1.9386108 4.0033998 10
2.294647 4.0675912 10
2.5766511 4.1318612 10
0.0414415 4.346972 9.9929762
0.40902001 4.3492732 10
1.471521 4.3619351 10
1.9220967 4.307375 10
2.2621846 4.3561077 10
2.6287284 4.3399587 10
2.9241524 4.3428736 10
0.061980404 4.6028972 9.9822569
0.42916301 4.5814362 10
0.74568033 4.6978183 10
1.3157203 4.5852566 10
1.9047836 4.6144915 10
2.1871779 4.7333498 10
2.5720334 4.7192931 10
2.9293051 4.50067 10
3.0407929 4.5000739 10
3.5380917 4.6881523 10
3.7548959 4.6109238 10
4.0646181 4.6690569 10
0.55417299 4.8520908 10
0.74678802 4.9278035 10
1.367943 5.0450411 10
2.1787801 4.843648 10
2.5284829 4.8787732 10
2.859066 4.9267378 10
3.2159381 4.8966146 10
3.4633796 4.8447242 10
4.368751 4.98246 10
0.22191899 5.208673 10
0.53859353 5.2147961 10
0.73798901 5.2896233 10
0.99659503 5.127347 10
2.218811 5.203578 10
2.4443505 5.2458401 10
3.1654789 5.2741165 10
3.5553191 5.304842 10
3.8034074 5.1782618 10
4.0524831 5.2398806 10
0.24993449 5.5463052 10
0.84536499 5.4870801 10
1.0512117 5.5859637 10
1.3432674 5.5101252 10
