# .PCD v0.7 - Point Cloud Data file format
VERSION 0.7
FIELDS x y z
SIZE 4 4 4
TYPE F F F
COUNT 1 1 1
WIDTH 2133
HEIGHT 1
VIEWPOINT 0 0 0 1 0 0 0
POINTS 2133
DATA ascii
5.4989018 10 1.6980319
5.6991143 10 1.7018486
5.9072943 10 1.7071936
6.09372 10 1.7121811
6.2992945 10 1.6896656
6.5034046 10 1.6986474
6.7072978 10 1.7014359
6.9105353 10 1.7067778
7.0951953 10 1.6925607
7.2991166 10 1.7060955
7.498198 10 1.7036195
7.7003531 10 1.6948122
7.9019952 10 1.6915964
8.1002264 10 1.7055391
8.2966938 10 1.7108594
8.494689 10 1.6989634
8.6964951 10 1.6966066
8.9058285 10 1.7046278
9.1125069 10 1.7056657
9.3119478 10 1.6947483
9.4923534 10 1.6977161
9.699811 10 1.7035925
9.916235 10 1.7028904
0.057835229 0.042598642 1.903064
0.29514217 0 1.8937427
0.49438211 0 1.906538
0.69857621 0 1.8905687
0.8996895 0 1.8950728
1.1114856 0 1.8944198
1.2906132 0 1.8987774
1.5010662 0 1.9047998
1.6993099 0 1.9007469
1.8883054 0 1.8957487
2.1001554 0 1.8982476
2.2933321 0 1.9010329
2.5026932 0 1.8992606
2.7009618 0 1.8906726
2.8897758 0 1.9035076
3.1006432 0 1.891286
3.3054752 0 1.8831016
3.4972851 0 1.8827604
3.6897635 0 1.9153299
3.8991442 0 1.9041816
4.0940738 0 1.8981444
4.3137703 0 1.9017683
4.4905424 0 1.8962873
4.6932492 0 1.8943425
4.904212 0 1.9085629
5.1018295 0 1.8835444
5.3206043 0 1.9069502
5.4848008 0 1.9003444
5.6874075 0 1.9038943
5.905376 0 1.9143413
6.096508 0 1.9125706
6.2948236 0 1.8996613
6.5023808 0 1.9191092
6.6967678 0 1.8980991
6.8860641 0 1.9023451
7.106544 0 1.9095403
7.2987704 0 1.9103041
7.4993949 0 1.8995436
7.694005 0 1.8986087
7.9079595 0 1.8927121
8.0996599 0 1.8912269
8.301053 0 1.8948911
8.4985762 0 1.9047835
8.695817 0 1.9018451
8.9030933 0 1.9036486
9.0956631 0 1.9005907
9.2959423 0 1.8946444
9.493125 0 1.8975265
9.696846 0 1.8903166
9.8869867 0 1.9034345
10 0.098997816 1.8963135
0 0.29704529 1.8952931
10 0.30392879 1.9019895
0 0.49800706 1.8978472
10 0.49965587 1.9061272
0 0.70447558 1.8979344
10 0.70637298 1.8948548
0 0.90443325 1.8961234
10 0.88806486 1.9093819
0 1.1021144 1.8877264
10 1.1004109 1.894807
0 1.3000563 1.9002666
10 1.3123404 1.9022686
0 1.5018603 1.9056435
10 1.499928 1.8897625
0 1.7031767 1.9058654
10 1.6962162 1.8842863
0 1.9044886 1.9038095
10 1.8954257 1.8950794
0 2.0978036 1.9000113
10 2.094135 1.8950083
0 2.3011985 1.9080181
10 2.3021426 1.9112283
0 2.5013745 1.8932378
10 2.5043745 1.9021181
0 2.6929741 1.9106934
10 2.6949222 1.8857945
0 2.8973186 1.8891
10 2.896728 1.891948
0 3.0996857 1.892543
10 3.1027031 1.9071655
0 3.2918112 1.9036517
10 3.2918823 1.9058837
0 3.5146155 1.8943583
10 3.4948778 1.8955424
0 3.7118776 1.8934963
10 3.6939697 1.8849342
0 3.8937843 1.9089036
10 3.9091709 1.9101993
0 4.0962057 1.8906106
10 4.0914779 1.9045944
0 4.3013282 1.8904275
10 4.2930245 1.9077615
0 4.4976196 1.8892467
10 4.5148458 1.8942217
0 4.6869874 1.8924092
10 4.7023153 1.9046984
0 4.9036846 1.8942477
10 4.8913679 1.8914762
0 5.1007862 1.9125322
10 5.1064949 1.8929935
0 5.3029876 1.9065769
10 5.3016357 1.9017427
0 5.4921746 1.9035542
10 5.5006022 1.8973868
0 5.7034802 1.9045095
10 5.7070451 1.8988441
0 5.9032445 1.8953017
10 5.8923645 1.8960994
0 6.0994554 1.9073941
10 6.0905704 1.8978539
0 6.3121958 1.8899157
10 6.3015132 1.9140049
0 6.5056028 1.8945947
10 6.4888606 1.897153
0 6.7143893 1.9054348
10 6.7103896 1.9031703
0 6.8969178 1.9018682
10 6.8926749 1.9105784
0 7.0963621 1.9020305
10 7.1057997 1.9061499
0 7.3040156 1.8928128
10 7.3010044 1.9116158
0 7.5175371 1.8998548
10 7.5073819 1.8998954
0 7.7082753 1.8851563
10 7.7045755 1.9153523
0 7.9071274 1.9001635
10 7.8912988 1.8943968
0 8.0936327 1.8934598
10 8.1012659 1.8963159
0 8.2917891 1.9054488
10 8.2965479 1.8987917
0 8.4998865 1.9023516
10 8.5024567 1.9027197
0 8.7000723 1.8983632
10 8.7094631 1.8980174
0 8.9077454 1.8918304
10 8.9031096 1.913452
0 9.0966053 1.8952943
10 9.0887661 1.8853564
0 9.3017054 1.8979759
10 9.3039999 1.8910537
0 9.4995594 1.9100895
10 9.4953089 1.8991166
0 9.6940374 1.8978437
10 9.7117977 1.8981528
0 9.9042883 1.8987203
10 9.9062223 1.9021044
0.094712093 10 1.9096302
0.30246273 10 1.9050465
0.51116669 10 1.9007069
0.69067419 10 1.9097617
0.88161105 10 1.9062561
1.1102799 10 1.897179
1.2966596 10 1.8877778
1.4886733 10 1.8929756
1.7053185 10 1.8957961
1.8956989 10 1.8998535
2.0947361 10 1.8976854
2.3086963 10 1.9025788
2.4980564 10 1.8939615
2.7155271 10 1.8892432
2.905829 10 1.8800131
3.0922048 10 1.8927583
3.3018568 10 1.895034
3.4981055 10 1.9022279
3.6930044 10 1.9084888
3.8925209 10 1.9149498
4.0998073 10 1.9078263
4.3009362 10 1.893049
4.5163107 10 1.9153702
4.6895299 10 1.8953453
4.9018631 10 1.8978697
5.0970244 10 1.9126956
5.2983398 10 1.8976454
5.4988294 10 1.9023653
5.6972589 10 1.8996279
5.8977251 10 1.9036531
6.1019483 10 1.9127868
6.3087306 10 1.9006448
6.4992132 10 1.8909861
6.689898 10 1.889726
6.8915854 10 1.9079645
7.1042423 10 1.9005086
7.298656 10 1.8931185
7.5021234 10 1.9018036
7.6966033 10 1.8900983
7.8966298 10 1.9072139
8.0998878 10 1.905171
8.2967215 10 1.9061064
8.4980297 10 1.8973362
8.6945934 10 1.8978
8.9002256 10 1.8933587
9.100091 10 1.9077756
9.285656 10 1.8941644
9.4949427 10 1.8984271
9.7006578 10 1.9099203
9.8958273 10 1.9076923
0.043797962 0.050470512 2.0973668
0.29420096 0 2.0917096
0.49759474 0 2.1056437
0.69138825 0 2.090945
0.89615113 0 2.1097949
1.0957139 0 2.1109262
1.3056833 0 2.1072938
1.4987012 0 2.1001778
1.6937324 0 2.0868962
1.8988991 0 2.0990772
2.0993629 0 2.1038518
2.299355 0 2.0932505
2.491416 0 2.0986898
2.6958334 0 2.0908651
2.8977153 0 2.1061709
3.1110721 0 2.10271
3.2936652 0 2.105473
3.4939294 0 2.0969288
3.6980574 0 2.0962801
3.9064262 0 2.1064072
4.0918946 0 2.0789483
4.3034143 0 2.0959508
4.4990692 0 2.0836537
4.7058749 0 2.0955648
4.8924785 0 2.1060021
5.1102071 0 2.1068151
5.3118162 0 2.1030967
5.5014372 0 2.100697
5.6940198 0 2.0921938
5.9248414 0 2.1106782
6.0907669 0 2.0959806
6.296639 0 2.1077216
6.4934692 0 2.0936933
6.7004256 0 2.1035151
6.8953719 0 2.0890234
7.1049991 0 2.087074
7.3000331 0 2.1027162
7.4967151 0 2.1004567
7.693687 0 2.0998855
7.9016309 0 2.0938497
8.0989056 0 2.1054928
8.2920818 0 2.1027074
8.5025234 0 2.1096401
8.6921358 0 2.0815139
8.8946733 0 2.0995607
9.1016989 0 2.0994442
9.3076773 0 2.1015704
9.4956293 0 2.0935178
9.7006092 0 2.1021359
9.8937082 0 2.0978639
10 0.096199937 2.101383
0 0.29738733 2.098963
10 0.29619753 2.1127415
0 0.48759899 2.1018789
10 0.5000211 2.0998909
0 0.70475364 2.0945354
10 0.69713581 2.0969858
0 0.90289646 2.1003673
10 0.89695072 2.0981557
0 1.1068265 2.1018324
10 1.0975796 2.092351
0 1.2953947 2.1058388
10 1.2991332 2.0990231
0 1.5027233 2.101583
10 1.4945405 2.0951107
0 1.6970197 2.1068897
10 1.7048631 2.1036282
0 1.8982859 2.0958548
10 1.8974776 2.1024132
0 2.0942268 2.0894985
10 2.1047955 2.1095316
0 2.2935708 2.1034958
10 2.308255 2.0982411
0 2.5001481 2.1039519
10 2.4988835 2.096144
0 2.7073376 2.0843782
10 2.698596 2.097774
0 2.8994527 2.0971739
10 2.894402 2.0973461
0 3.0940914 2.0971658
10 3.1054556 2.0977623
0 3.3097262 2.0928731
10 3.2908673 2.1044772
0 3.5006495 2.1005824
10 3.504823 2.0941916
0 3.6973472 2.0999279
10 3.699224 2.0995853
0 3.8929219 2.1064043
10 3.9005733 2.0979147
0 4.0996451 2.0990698
10 4.1089029 2.1013837
0 4.3169932 2.0919039
10 4.2884054 2.102705
0 4.4986143 2.0995963
10 4.5171189 2.0866909
0 4.7039623 2.091243
10 4.7106447 2.0972781
0 4.8831868 2.1121888
10 4.8974261 2.1144443
0 5.0974154 2.1086578
10 5.1030693 2.0921845
0 5.3080482 2.0833509
10 5.3034306 2.0881233
0 5.5025215 2.1013191
10 5.5010614 2.0936253
0 5.7017603 2.1077971
10 5.6951818 2.1058629
0 5.889998 2.0990369
10 5.9031067 2.1026843
0 6.0941958 2.0952303
10 6.0923862 2.0998726
0 6.3097882 2.1064718
10 6.3000503 2.1055019
0 6.5060644 2.099534
10 6.5021791 2.097235
0 6.6991057 2.1042578
10 6.6982965 2.1111815
0 6.8986964 2.114125
10 6.9014053 2.1096246
0 7.1124821 2.0985208
10 7.0950928 2.1108012
0 7.3055944 2.1108174
10 7.3131557 2.088316
0 7.5027432 2.100347
10 7.5034218 2.100322
0 7.6997771 2.1023591
10 7.7035522 2.1102345
0 7.895143 2.0900013
10 7.8995962 2.1014209
0 8.0996895 2.0920997
10 8.1233397 2.0963717
0 8.2933321 2.103622
10 8.301096 2.1034403
0 8.4970922 2.0941112
10 8.4961367 2.1009281
0 8.703104 2.0951765
10 8.6967402 2.0975845
0 8.9036627 2.1007521
10 8.9037428 2.0966206
0 9.0974817 2.1013739
10 9.1021452 2.0985644
0 9.2923326 2.1061854
10 9.3019619 2.1045074
0 9.4980516 2.101831
10 9.498436 2.107662
0 9.6921558 2.0932224
10 9.6971416 2.1029141
0 9.9049788 2.0969279
10 9.9006281 2.1001129
0.092825986 10 2.1059077
0.29520676 10 2.0966175
0.51342463 10 2.0998285
0.70361471 10 2.1059537
0.88622093 10 2.1077623
1.1159142 10 2.1010847
1.2895256 10 2.1036217
1.4972694 10 2.095768
1.7098734 10 2.0943151
1.8982192 10 2.0922403
2.099241 10 2.1038983
2.3049991 10 2.0856068
2.51055 10 2.1051908
2.7115903 10 2.105746
2.8922923 10 2.1029406
3.104136 10 2.1119125
3.3150713 10 2.1035621
3.5048745 10 2.1042962
3.6930521 10 2.104038
3.891258 10 2.0940866
4.1180501 10 2.0999596
4.3047705 10 2.1042314
4.5035076 10 2.0985749
4.7071457 10 2.0964482
4.8930507 10 2.0930603
5.0937228 10 2.0867338
5.2958751 10 2.0990176
5.5035396 10 2.0968597
5.7032666 10 2.0985525
5.906774 10 2.0944817
6.0982518 10 2.1040254
6.2940006 10 2.0858257
6.4997478 10 2.1043134
6.7028008 10 2.1019833
6.9037423 10 2.1022861
7.0983543 10 2.0923791
7.2965546 10 2.1012506
7.491745 10 2.0978363
7.6862559 10 2.0964367
7.8920908 10 2.0954683
8.095355 10 2.0979836
8.293931 10 2.0953567
8.5010862 10 2.0930443
8.7022467 10 2.1128838
8.9044781 10 2.1032341
9.1018925 10 2.1046729
9.3039255 10 2.0937879
9.5006599 10 2.0957966
9.6941195 10 2.0975578
9.9040499 10 2.1001375
0.060825951 0.042868081 2.2943449
0.29178044 0 2.3107574
0.50197488 0 2.2999594
0.71529353 0 2.3024802
0.89848244 0 2.2980688
1.1023772 0 2.3002222
1.2953676 0 2.2950776
1.4977747 0 2.3043084
1.7087228 0 2.2941041
1.894979 0 2.3013625
2.0994933 0 2.2926967
2.3044133 0 2.3026879
2.5034845 0 2.3057959
2.6891508 0 2.3002982
2.9045997 0 2.3023179
3.0927665 0 2.3052824
3.3073795 0 2.2943385
3.5015476 0 2.3074903
3.6871438 0 2.2861037
3.8871877 0 2.2926424
4.0967641 0 2.295311
4.2851343 0 2.2968414
4.4907918 0 2.3034158
4.691081 0 2.2909443
4.9027147 0 2.3042099
5.1009226 0 2.3025498
5.2938361 0 2.2812514
5.4975905 0 2.298383
5.7098536 0 2.3104172
5.9005499 0 2.2920799
6.1128879 0 2.3010628
6.3003178 0 2.2897608
6.4945326 0 2.2981386
6.6917667 0 2.2979615
6.895987 0 2.3062747
7.1028771 0 2.2908521
7.3026447 0 2.3005505
7.4900818 0 2.2792053
7.694077 0 2.303122
7.8967886 0 2.303993
8.1008177 0 2.2907777
8.3010502 0 2.2957802
8.4894152 0 2.3095539
8.7127142 0 2.2911725
8.8953104 0 2.2917402
9.0951004 0 2.3092651
9.2978678 0 2.2953746
9.503603 0 2.3072574
9.6962566 0 2.2951412
9.8993397 0 2.2997077
10 0.096097477 2.3089216
0 0.29559082 2.2947226
10 0.29500216 2.3123128
0 0.50330406 2.293005
10 0.4925122 2.2999246
0 0.7078988 2.3053713
10 0.70128149 2.3130546
0 0.89186603 2.3013566
10 0.89221668 2.3098717
0 1.0980749 2.2946787
10 1.1138355 2.3079677
0 1.302078 2.2943773
10 1.302617 2.2993827
0 1.4986145 2.2926712
10 1.4987869 2.2891321
0 1.6893163 2.3087537
10 1.6987333 2.2969244
0 1.8918676 2.3051956
10 1.8948315 2.2930715
0 2.10554 2.3032343
10 2.0910916 2.299257
0 2.2955649 2.3117406
10 2.3011324 2.3038955
0 2.4999409 2.3016188
10 2.4899478 2.3018904
0 2.6939209 2.3053341
10 2.6972172 2.2967117
0 2.899107 2.2945001
10 2.9088957 2.3026788
0 3.1000528 2.3128884
10 3.0995259 2.3035216
0 3.2979589 2.307303
10 3.3043025 2.3123646
0 3.4880469 2.2921128
10 3.4993129 2.2926068
0 3.7009096 2.2894402
10 3.7032068 2.2992613
0 3.9037156 2.292341
10 3.8930264 2.2941995
0 4.1037192 2.299412
10 4.0977478 2.2981117
0 4.3095627 2.3071232
10 4.3084836 2.3136594
0 4.4925103 2.3062704
10 4.4928699 2.2925646
0 4.70854 2.29984
10 4.6811934 2.3065112
0 4.9061351 2.3008807
10 4.9019752 2.2835877
0 5.1044989 2.3091202
10 5.0985074 2.3076119
0 5.2903018 2.307817
10 5.2976537 2.2895968
0 5.5131679 2.2937045
10 5.4991565 2.2949266
0 5.6970763 2.2914226
10 5.7031817 2.2986219
0 5.900423 2.2846973
10 5.8907251 2.2932727
0 6.0932217 2.296639
10 6.1037102 2.2968771
0 6.3040333 2.2924349
10 6.2995844 2.2967396
0 6.49435 2.280499
10 6.4957805 2.3115964
0 6.6879253 2.3006618
10 6.7095895 2.3046949
0 6.9015884 2.303638
10 6.8920608 2.294837
0 7.0952544 2.3054011
10 7.1043992 2.2956886
0 7.295023 2.293721
10 7.30369 2.3139555
0 7.5090809 2.3023226
10 7.4958014 2.2995057
0 7.7042217 2.2933002
10 7.7044415 2.2990477
0 7.9126706 2.3022766
10 7.8950448 2.3004804
0 8.0962267 2.2999184
10 8.0913124 2.3052795
0 8.3067398 2.3038654
10 8.2930079 2.3093622
0 8.493432 2.2975934
10 8.4999037 2.2996483
0 8.7127151 2.2946918
10 8.7025185 2.3071973
0 8.9070187 2.3044384
10 8.9061356 2.2982848
0 9.0934544 2.2962122
10 9.1058588 2.2925508
0 9.3033285 2.2952707
10 9.3028193 2.2934895
0 9.5061121 2.2963448
10 9.49084 2.3007417
0 9.6875515 2.2992234
10 9.6974201 2.2986419
0 9.9229746 2.2951176
10 9.8991947 2.2911737
0.096511461 10 2.3068244
0.30663756 10 2.2981236
0.49946937 10 2.2944298
0.7004354 10 2.3108084
0.89692074 10 2.2975266
1.0918031 10 2.3114877
1.3105903 10 2.2991402
1.5149276 10 2.293081
1.6900047 10 2.288595
1.9089981 10 2.293225
2.1095245 10 2.3018503
2.3036845 10 2.2953146
2.5044045 10 2.2954068
2.6963384 10 2.2905271
2.9094894 10 2.2891548
3.1075456 10 2.2973843
3.3023779 10 2.3070261
3.5012891 10 2.3054373
3.7082412 10 2.3007162
3.8993676 10 2.3070936
4.0883622 10 2.2988894
4.2925277 10 2.2976248
4.4996676 10 2.295856
4.7052689 10 2.3033416
4.8987308 10 2.2941144
5.1002455 10 2.295419
5.304317 10 2.2971845
5.5137858 10 2.301518
5.7139797 10 2.2862329
5.9044843 10 2.2856004
6.111516 10 2.2970021
6.299737 10 2.3028176
6.4994678 10 2.2977037
6.6969061 10 2.2918844
6.8880229 10 2.299016
7.0916896 10 2.308449
7.3006005 10 2.2982635
7.5152578 10 2.2914765
7.6961842 10 2.3057699
7.894711 10 2.2963333
8.0837421 10 2.2946408
8.3073387 10 2.3172734
8.5048342 10 2.3016109
8.6974506 10 2.2980316
8.902915 10 2.2949672
9.088501 10 2.2992096
9.2936316 10 2.3024852
9.4917984 10 2.2932527
9.7052879 10 2.3027828
9.9109755 10 2.3087592
0.059436996 0.043740667 2.495152
0.30515966 0 2.4999382
0.50372005 0 2.5007393
0.70115227 0 2.484349
0.89541692 0 2.503119
1.0977355 0 2.5011935
1.295809 0 2.4940548
1.495734 0 2.4953687
1.7032022 0 2.522409
1.9175862 0 2.4924099
2.0864329 0 2.5099335
2.3089814 0 2.5031011
2.5119543 0 2.4999585
2.7015042 0 2.5079639
2.9076056 0 2.5060279
3.0899911 0 2.5016422
3.2928414 0 2.5050859
3.4945338 0 2.4935954
3.6877835 0 2.5019298
3.9030833 0 2.5062497
4.0975327 0 2.5103354
4.2993083 0 2.4977596
4.5064387 0 2.512665
4.7078023 0 2.5033433
4.9031157 0 2.4872627
5.1033864 0 2.4993093
5.3049521 0 2.5027509
5.5043726 0 2.4964523
5.7041945 0 2.5070589
5.9159164 0 2.5062249
6.109817 0 2.5101025
6.3002706 0 2.5090799
6.4959979 0 2.4942205
6.6975083 0 2.5002396
6.8938732 0 2.5048425
7.1022511 0 2.501791
7.304996 0 2.5000143
7.5088058 0 2.4857569
7.7080889 0 2.500854
7.9078422 0 2.5052085
8.0937834 0 2.4854882
8.2986221 0 2.4968643
8.4948845 0 2.5057652
8.7017746 0 2.4995463
8.8915367 0 2.4909751
9.1125364 0 2.4964356
9.3017464 0 2.4962988
9.505784 0 2.4908617
9.7120895 0 2.494374
9.8957567 0 2.5015626
10 0.10350437 2.5002165
0 0.29934689 2.4917817
10 0.3044748 2.4994314
0 0.50585824 2.503864
10 0.51527745 2.5045726
0 0.70265144 2.5006807
10 0.68904579 2.4996972
0 0.90072513 2.5029576
10 0.89263439 2.496944
0 1.0983393 2.4896924
10 1.1050148 2.5229261
0 1.3049488 2.5085635
10 1.2988404 2.5045702
0 1.5034636 2.5057375
10 1.4988518 2.5014498
0 1.7054569 2.5160999
10 1.6976396 2.5081725
0 1.8951927 2.5022078
10 1.9009236 2.5027556
0 2.106122 2.4875243
10 2.0914695 2.4937248
0 2.2961814 2.4944441
10 2.3049076 2.5093842
0 2.5028424 2.5070419
10 2.4949615 2.4985929
0 2.6968646 2.5035317
10 2.6929533 2.5145812
0 2.90786 2.5134995
10 2.9042058 2.5066164
0 3.0979321 2.4971206
10 3.0985432 2.495065
0 3.3125956 2.5039923
10 3.2817442 2.5099704
0 3.4961588 2.5117083
10 3.5047393 2.5063372
0 3.6863792 2.4909842
10 3.6971078 2.4902515
0 3.9067874 2.5017071
10 3.891439 2.4886212
0 4.0997815 2.5093029
10 4.1005516 2.5011947
0 4.2966237 2.4980068
10 4.2992077 2.4867928
0 4.502316 2.5066261
10 4.4966121 2.5001128
0 4.6831226 2.4957039
10 4.6979351 2.5013983
0 4.8983188 2.5023372
10 4.9019804 2.4972124
0 5.1044707 2.508219
10 5.0997353 2.4980991
0 5.2727175 2.5077758
10 5.3052773 2.5086148
0 5.4995618 2.4913907
10 5.4936824 2.48996
0 5.7034211 2.4934185
10 5.6893854 2.4889698
0 5.9007578 2.5153291
10 5.9000421 2.4870877
0 6.1014147 2.4969783
10 6.1066651 2.5031908
0 6.2808595 2.5117548
10 6.2932181 2.4886103
0 6.5021625 2.4947686
10 6.5097938 2.4960277
0 6.6950221 2.5111866
10 6.6963401 2.5014594
0 6.8924694 2.4920795
10 6.8927026 2.4877887
0 7.104692 2.5086527
10 7.0948424 2.5010169
0 7.2980485 2.5011475
10 7.3119922 2.4992745
0 7.4954672 2.4972758
10 7.5003881 2.4958193
0 7.7124004 2.4976151
10 7.6945381 2.5122561
0 7.8978529 2.5038838
10 7.9037671 2.4964941
0 8.1089897 2.4987085
10 8.0934286 2.4919112
0 8.3002663 2.4980536
10 8.303874 2.4990263
0 8.5012693 2.4949334
10 8.5007105 2.5008273
0 8.7065191 2.5067179
10 8.6959801 2.4964461
0 8.9060392 2.5033443
10 8.9072065 2.5054994
0 9.0962524 2.5030615
10 9.0921679 2.5050976
0 9.3070459 2.4932044
10 9.2938118 2.5023644
0 9.492754 2.5003881
10 9.5012026 2.4929457
0 9.7020283 2.5027564
10 9.7086716 2.5008006
0 9.8977766 2.4931321
10 9.9150763 2.4979024
0.10139365 10 2.5143797
0.3049714 10 2.5112581
0.48612118 10 2.5144379
0.68999261 10 2.4953399
0.90748638 10 2.4947286
1.0903187 10 2.4948633
1.3008893 10 2.4900389
1.5091995 10 2.4929407
1.7118022 10 2.5049744
1.8922744 10 2.4894035
2.104681 10 2.5061309
2.294657 10 2.5091507
2.5065265 10 2.492039
2.6913464 10 2.4883485
2.9031808 10 2.4867492
3.1093135 10 2.5101557
3.2976553 10 2.4971824
3.5046897 10 2.4983675
3.6936245 10 2.5071092
3.89148 10 2.4931762
4.0883951 10 2.4989679
4.3066187 10 2.5004518
4.5028892 10 2.4986136
4.6995173 10 2.5029681
4.9052186 10 2.5010397
5.1104755 10 2.4910338
5.3041062 10 2.4992888
5.495254 10 2.5052168
5.6957512 10 2.495343
5.8990154 10 2.4978366
6.0955834 10 2.4990332
6.295723 10 2.4972839
6.5076866 10 2.5001407
6.6985235 10 2.496176
6.9064794 10 2.4980323
7.110105 10 2.5132415
7.3032274 10 2.4992738
7.4963179 10 2.511878
7.7096915 10 2.5060256
7.8999076 10 2.4966757
8.0982971 10 2.5024002
8.305871 10 2.5044875
8.4871531 10 2.4957721
8.701829 10 2.4972143
8.8956213 10 2.5068748
9.1044884 10 2.4870183
9.2928152 10 2.5224183
9.4985476 10 2.5020566
9.7007837 10 2.4877157
9.8831434 10 2.5013256
0.060860153 0.041115724 2.6959608
0.30274007 0 2.7106118
0.49331266 0 2.7054949
0.69976342 0 2.7015831
0.90803981 0 2.7091503
1.0945325 0 2.7110307
1.3083183 0 2.6913302
1.5012816 0 2.6989994
1.7080839 0 2.70294
1.9006597 0 2.704026
2.09199 0 2.68416
2.3080256 0 2.703989
2.4929581 0 2.7045386
2.703455 0 2.6880832
2.907927 0 2.6987956
3.0903025 0 2.6995401
3.294126 0 2.6988811
3.5000081 0 2.7062554
3.7033095 0 2.7050142
3.9095488 0 2.6909406
4.0984645 0 2.697978
4.308064 0 2.6997972
4.4930477 0 2.7001128
4.7091451 0 2.6976576
4.9147115 0 2.6886864
5.0938654 0 2.6855934
5.2865734 0 2.7087307
5.5059986 0 2.7018421
5.7080622 0 2.7071607
5.9140368 0 2.698416
6.0924239 0 2.6891794
6.2899628 0 2.6878848
6.4955959 0 2.7057741
6.6932464 0 2.6903789
6.8918123 0 2.6961818
7.0911207 0 2.7091615
7.3041639 0 2.7059817
7.5019097 0 2.6890459
7.6973939 0 2.7044535
7.8966093 0 2.6924243
8.1082611 0 2.7018063
8.3033209 0 2.6884458
8.4975958 0 2.6959391
8.7119875 0 2.6884549
8.9127989 0 2.6822271
9.0935507 0 2.6919281
9.3114338 0 2.7144921
9.5021458 0 2.6945987
9.696928 0 2.7008536
9.9051189 0 2.6949079
10 0.11151063 2.701962
0 0.31132641 2.695647
10 0.28816721 2.7067294
0 0.51572263 2.6957932
10 0.49793568 2.7057238
0 0.69865328 2.7012854
10 0.69517761 2.7147615
0 0.89766055 2.7003617
10 0.90230137 2.7166121
0 1.0934987 2.6935441
10 1.102753 2.6925025
0 1.2891743 2.7048144
10 1.2978036 2.7095709
0 1.5086311 2.7017772
10 1.5095205 2.700099
0 1.6928246 2.7009935
10 1.6960217 2.7047696
0 1.8927982 2.6951842
10 1.8851708 2.6999478
0 2.0964117 2.7043459
10 2.0979171 2.704793
0 2.2960567 2.6941023
10 2.3088036 2.6951649
0 2.4959846 2.7126262
10 2.5050101 2.7091806
0 2.7100942 2.6998763
10 2.7182951 2.6985874
0 2.8974805 2.7028809
10 2.9077499 2.6994007
0 3.1140022 2.6928005
10 3.1069753 2.7062607
0 3.3206208 2.7005451
10 3.3031523 2.7010043
0 3.5018089 2.70944
10 3.5008035 2.6942205
0 3.7019043 2.7112713
10 3.703476 2.6951652
0 3.8893952 2.6979156
10 3.8976989 2.6872666
0 4.0890679 2.7099826
10 4.1034584 2.7064869
0 4.3058581 2.6945658
10 4.3023462 2.7004356
0 4.5044532 2.7006054
10 4.4967079 2.693023
0 4.6941504 2.6983435
10 4.702724 2.7050376
0 4.8924146 2.7100322
10 4.8916044 2.695899
0 5.0972404 2.6931088
10 5.1025233 2.7016954
0 5.3067122 2.7114594
10 5.2929549 2.6948338
0 5.5051188 2.6940739
10 5.5096273 2.6997464
0 5.6947966 2.7071955
10 5.6851735 2.7006655
0 5.9036365 2.6962867
10 5.8969083 2.7107766
0 6.0961857 2.6956708
10 6.0924892 2.6961262
0 6.3089857 2.6913695
10 6.2959614 2.7021658
0 6.5134482 2.7048173
10 6.50456 2.6976967
0 6.7003841 2.7064695
10 6.7023759 2.7027602
0 6.9072595 2.6995971
10 6.9081078 2.7073395
0 7.0927525 2.6903515
10 7.1132441 2.7034924
0 7.3040409 2.7051842
10 7.3080387 2.7021251
0 7.5023718 2.6974223
10 7.5049891 2.7004778
0 7.7026563 2.6908209
10 7.7003894 2.7062659
0 7.8966608 2.6924083
10 7.8887405 2.7018754
0 8.1015186 2.7094243
10 8.1014633 2.7036326
0 8.3010845 2.691246
10 8.3000336 2.698487
0 8.5076637 2.6920726
10 8.5173159 2.7086396
0 8.696208 2.713223
10 8.6905069 2.7046075
0 8.8943434 2.6984813
10 8.9065094 2.7004287
0 9.0949583 2.6982431
10 9.1054554 2.6928284
0 9.3046055 2.702431
10 9.2979736 2.6941755
0 9.5034447 2.6972454
10 9.5099173 2.6972327
0 9.7035952 2.6985328
10 9.7129955 2.6907496
0 9.8980007 2.7019515
10 9.9059219 2.704772
0.10722148 10 2.7044356
0.2932817 10 2.6887977
0.50626379 10 2.7095451
0.7074632 10 2.6923606
0.89447081 10 2.7031801
1.1127175 10 2.7006285
1.2784091 10 2.687731
1.5009375 10 2.6986609
1.7023842 10 2.7045763
1.9163419 10 2.7073679
2.1035721 10 2.7007389
2.304738 10 2.7088687
2.4980855 10 2.7029586
2.7114208 10 2.6940663
2.9059498 10 2.698143
3.0983789 10 2.7192171
3.3034997 10 2.7014551
3.5205626 10 2.6894939
3.7057412 10 2.7044914
3.9021707 10 2.7005863
4.0950356 10 2.6996541
4.3024302 10 2.6976087
4.5048389 10 2.7102194
4.715816 10 2.6948967
4.8913245 10 2.6942403
5.1011434 10 2.7019317
5.3027835 10 2.6948001
5.5026994 10 2.6910529
5.701694 10 2.6926126
5.9064012 10 2.675606
6.095212 10 2.6895621
6.3003645 10 2.7014284
6.4988627 10 2.7026656
6.7046309 10 2.7030504
6.9060249 10 2.7053361
7.1121888 10 2.6956794
7.2984672 10 2.693785
7.5062246 10 2.6936116
7.6970305 10 2.6933255
7.8972974 10 2.6972561
8.0888901 10 2.6954539
8.2889938 10 2.7074516
8.4940176 10 2.6979401
8.7053232 10 2.701875
8.8981609 10 2.6858652
9.1014404 10 2.7074707
9.2976065 10 2.6974249
9.4996357 10 2.6951365
9.6964579 10 2.702086
9.8995838 10 2.7005513
0.043670729 0.057320867 2.9011354
0.30547801 0 2.8955553
0.49693286 0 2.9005842
0.6872434 0 2.9099967
0.9086507 0 2.9059658
1.0983697 0 2.8953309
1.2968251 0 2.9023499
1.5025383 0 2.9044306
1.6909434 0 2.900167
1.8992739 0 2.9114377
2.1006932 0 2.9053335
2.301461 0 2.8815339
2.4950523 0 2.8898897
2.7040741 0 2.9111073
2.8925536 0 2.9085414
3.1090786 0 2.9107831
3.3073893 0 2.8922362
3.5020249 0 2.8938451
3.7111261 0 2.8912594
3.9050827 0 2.9042826
4.1014442 0 2.8991315
4.2958088 0 2.9064691
4.496767 0 2.9019957
4.6851282 0 2.9129474
4.9096398 0 2.9101858
5.1005626 0 2.9019761
5.3130779 0 2.8993576
5.505096 0 2.8972156
5.6953974 0 2.8983371
5.9032693 0 2.896842
6.1001596 0 2.8928308
6.3088031 0 2.9006507
6.4954758 0 2.8889277
6.7009959 0 2.9063277
6.8993506 0 2.9055493
7.0973544 0 2.8962686
7.3114638 0 2.9023459
7.5073023 0 2.896893
7.704915 0 2.8952065
7.9031057 0 2.9231794
8.0949411 0 2.8975706
8.3063831 0 2.8902431
8.4935198 0 2.9046075
8.6928892 0 2.8917227
8.9064798 0 2.8918943
9.0949831 0 2.9031835
9.3016071 0 2.895705
9.49403 0 2.8914969
9.7112894 0 2.8881879
9.9103832 0 2.9046476
10 0.098591067 2.8911378
0 0.28874853 2.9052827
10 0.29893082 2.8903491
0 0.49289837 2.8861504
10 0.49443367 2.9061232
0 0.69618154 2.9126589
10 0.69637197 2.9042096
0 0.89424169 2.9009566
10 0.90310025 2.8980379
0 1.1008431 2.901113
10 1.0980614 2.9032125
0 1.3148363 2.9024234
10 1.3014421 2.9178939
0 1.4944639 2.9072378
10 1.4940906 2.9134858
0 1.7045361 2.9018645
10 1.699497 2.9076555
0 1.8909494 2.9069533
10 1.9098226 2.8966393
0 2.0968416 2.9037623
10 2.0995085 2.8973994
0 2.3080907 2.9089596
10 2.2920935 2.9103086
0 2.4976716 2.9055715
10 2.482127 2.8984373
0 2.6992743 2.8911788
10 2.6924176 2.9029872
0 2.8957453 2.9094458
10 2.8949981 2.8961716
0 3.1075122 2.8844965
10 3.0873914 2.8965838
0 3.2924926 2.8965275
10 3.289619 2.9005399
0 3.5019956 2.9047558
10 3.5070262 2.8955867
0 3.7107229 2.8935201
10 3.7002702 2.9076552
0 3.8974905 2.8876123
10 3.897707 2.9110734
0 4.0937777 2.8918626
10 4.1061816 2.902457
0 4.3019366 2.902998
10 4.3121786 2.9080439
0 4.5064101 2.8942475
10 4.4959564 2.8955977
0 4.6917453 2.9009845
10 4.6874747 2.9055383
0 4.8865848 2.8930857
10 4.8973222 2.8872981
0 5.0967879 2.8965259
10 5.1031504 2.9021945
0 5.2946053 2.9152358
10 5.2998333 2.8949583
0 5.4912696 2.9032705
10 5.5029397 2.9013932
0 5.6975374 2.9027419
10 5.706974 2.8973703
0 5.9010978 2.8929253
10 5.908402 2.90009
0 6.0872626 2.894825
10 6.1025076 2.8937011
0 6.3033838 2.8970065
10 6.2909617 2.9004989
0 6.4957118 2.8851242
10 6.5115237 2.8933423
0 6.6972823 2.89854
10 6.702569 2.9048727
0 6.8939371 2.8883784
10 6.9014397 2.9117892
0 7.1044559 2.9104283
10 7.099699 2.8936827
0 7.2981453 2.9063125
10 7.2973108 2.903636
0 7.490407 2.8893781
10 7.5014539 2.8915637
0 7.7015929 2.890157
10 7.7045789 2.9121578
0 7.9007759 2.9052238
10 7.894731 2.9005675
0 8.1058292 2.9003229
10 8.1002321 2.9107006
0 8.3057013 2.906193
10 8.3012495 2.9004261
0 8.5160007 2.9004087
10 8.5063 2.8933086
0 8.7127008 2.8917298
10 8.7097025 2.9013777
0 8.9040642 2.8929131
10 8.906148 2.8823972
0 9.0765057 2.9100552
10 9.1008024 2.9083309
0 9.3079357 2.9169812
10 9.3088522 2.8936718
0 9.4970779 2.9017916
10 9.4966192 2.9015915
0 9.6981125 2.9008167
10 9.6977825 2.8954394
0 9.9079275 2.9042387
10 9.9029169 2.899308
0.10899339 10 2.8871219
0.29649401 10 2.908561
0.50201315 10 2.8952997
0.68855619 10 2.897649
0.89398956 10 2.8920257
1.1024992 10 2.8989372
1.2975808 10 2.8986738
1.4845213 10 2.9041104
1.7022023 10 2.9090755
1.8948933 10 2.9017148
2.092272 10 2.9039004
2.3063881 10 2.898442
2.488631 10 2.8924317
2.7117016 10 2.9023883
2.8932636 10 2.9020903
3.1140475 10 2.904948
3.3126419 10 2.8969703
3.4974751 10 2.8936045
3.7106595 10 2.9005415
3.9062316 10 2.9084249
4.0930815 10 2.8972459
4.2927914 10 2.901047
4.5044942 10 2.9043128
4.6975789 10 2.8923733
4.9005356 10 2.8992722
5.0985694 10 2.9024944
5.313199 10 2.8886614
5.4948421 10 2.9085495
5.700695 10 2.8985076
5.9046421 10 2.9030201
6.1039891 10 2.8988807
6.3079376 10 2.8972836
6.5093966 10 2.9108453
6.7012386 10 2.893713
6.9037819 10 2.8955622
7.0968146 10 2.9101565
7.3077922 10 2.9054186
7.4925394 10 2.9139121
7.7130809 10 2.8984206
7.8954248 10 2.895267
8.1080818 10 2.9032795
8.2837744 10 2.9030254
8.5205584 10 2.8951159
8.7021313 10 2.9046052
8.8990898 10 2.9000862
9.1017904 10 2.8935933
9.3060551 10 2.8907952
9.5027437 10 2.8979502
9.7067175 10 2.8910565
9.907629 10 2.906013
0.043292664 0.054477498 3.1034462
0.30493236 0 3.1003628
0.51190883 0 3.100076
0.7025497 0 3.0949435
0.89880079 0 3.1114197
1.0979196 0 3.0964322
1.3073429 0 3.1050224
1.4958522 0 3.0936415
1.7048483 0 3.1051795
1.8976609 0 3.0923514
2.1100845 0 3.0905709
2.2981136 0 3.0953541
2.5028992 0 3.0961609
2.7049005 0 3.0913467
2.9057448 0 3.1031659
3.1137891 0 3.1012795
3.291364 0 3.0976281
3.507165 0 3.1085997
3.6947446 0 3.1020203
3.9104877 0 3.0939598
4.1039004 0 3.1033726
4.3050394 0 3.0882742
4.4960413 0 3.0979156
4.6892986 0 3.0994368
4.9050317 0 3.109868
5.1122541 0 3.0998297
5.2979259 0 3.1028068
5.492126 0 3.1059859
5.707984 0 3.1034331
5.9024825 0 3.0992379
6.0900035 0 3.0861788
6.298563 0 3.113889
6.4930029 0 3.103569
6.7020969 0 3.1016941
6.9094391 0 3.1027341
7.0804367 0 3.1045871
7.2962832 0 3.0864034
7.5017185 0 3.0991111
7.6869025 0 3.089968
7.9099288 0 3.0976541
8.0992432 0 3.0948462
8.3061562 0 3.1084244
8.4963713 0 3.1057606
8.7007475 0 3.1120539
8.8980417 0 3.0876443
9.0874643 0 3.1092904
9.3060875 0 3.1063955
9.5045385 0 3.0959537
9.6955175 0 3.1003959
9.8911581 0 3.0889392
10 0.094222188 3.0901132
0 0.29193741 3.1021721
10 0.29247352 3.100878
0 0.50080109 3.0925074
10 0.4989925 3.0894303
0 0.70969218 3.094322
10 0.68965507 3.0972152
0 0.8964721 3.094451
10 0.90111899 3.100286
0 1.1169657 3.0941732
10 1.1071661 3.0889821
0 1.2981131 3.1063893
10 1.2952992 3.0967834
0 1.50985 3.0930622
10 1.500188 3.0907254
0 1.6982942 3.0890663
10 1.692443 3.0980997
0 1.8894081 3.1060557
10 1.916145 3.1147571
0 2.0868506 3.1015124
10 2.1008322 3.1099503
0 2.2914393 3.1162767
10 2.3058867 3.1057131
0 2.494925 3.1008725
10 2.4959912 3.0899713
0 2.6968462 3.0964499
10 2.7018812 3.0935245
0 2.9057951 3.0889916
10 2.8981287 3.1012022
0 3.0931151 3.0977952
10 3.1069696 3.0967832
0 3.3045816 3.0950546
10 3.2933295 3.0881512
0 3.5135143 3.0973492
10 3.5003679 3.1130886
0 3.7001989 3.097297
10 3.6980705 3.1039202
0 3.9105568 3.1010096
10 3.8989847 3.0942588
0 4.0946603 3.1046011
10 4.0904708 3.0998559
0 4.2999897 3.1058092
10 4.2972388 3.0966501
0 4.5000596 3.1022205
10 4.5052128 3.1076119
0 4.7039199 3.0919445
10 4.7013249 3.089205
0 4.8991923 3.0941694
10 4.8941536 3.099962
0 5.1134696 3.1010153
10 5.1063762 3.1050184
0 5.299736 3.1048255
10 5.3001137 3.1048563
0 5.4976764 3.090235
10 5.4993782 3.0926924
0 5.7161365 3.0966814
10 5.7002401 3.1045203
0 5.8976021 3.0927963
10 5.903635 3.1061261
0 6.1003394 3.0986865
10 6.107163 3.0995121
0 6.3087392 3.0994267
10 6.2948103 3.0943151
0 6.521029 3.0891047
10 6.4885054 3.0856521
0 6.7005157 3.101742
10 6.7002773 3.0891168
0 6.89183 3.1064305
10 6.9075127 3.0769482
0 7.0976052 3.1072454
10 7.091362 3.0979257
0 7.2946806 3.1011884
10 7.3145752 3.0986409
0 7.495399 3.1035891
10 7.5052719 3.1079636
0 7.7176461 3.0965827
10 7.7000012 3.093946
0 7.9022899 3.0988572
10 7.8919525 3.0945728
0 8.0988493 3.082859
10 8.0987453 3.095053
0 8.2942715 3.1057203
10 8.2949762 3.1065323
0 8.5020037 3.0951703
10 8.4935579 3.0928836
0 8.6896791 3.1044238
10 8.7149982 3.0990152
0 8.9070902 3.0932622
10 8.9124823 3.1093688
0 9.0973825 3.0946672
10 9.1055784 3.0970292
0 9.3170547 3.0944591
10 9.3036432 3.102922
0 9.5050859 3.0880477
10 9.4999962 3.0940607
0 9.713644 3.0967762
10 9.7065725 3.1180274
0 9.9129829 3.0946674
10 9.8980246 3.0925815
0.089397348 10 3.1054363
0.2997497 10 3.0946672
0.47815987 10 3.1041811
0.69327521 10 3.1021185
0.89546692 10 3.1045892
1.1110462 10 3.1002848
1.3045619 10 3.0888762
1.4959995 10 3.1082494
1.7017443 10 3.1058466
1.8975763 10 3.0953233
2.1062965 10 3.0865805
2.2983086 10 3.0966554
2.4969981 10 3.0994377
2.7009776 10 3.0970087
2.8931012 10 3.0933368
3.0907199 10 3.0934653
3.3006694 10 3.1002176
3.4908245 10 3.0940461
3.6955943 10 3.1002941
3.8963509 10 3.0916419
4.1037893 10 3.1024728
4.3052897 10 3.1135328
4.4909277 10 3.1055954
4.7037849 10 3.0976577
4.900733 10 3.0968318
5.0904641 10 3.1083424
5.3005137 10 3.0910816
5.4988794 10 3.1031797
5.7017407 10 3.093576
5.8874636 10 3.1058266
6.0946183 10 3.1115565
6.3070631 10 3.0878308
6.4928288 10 3.0960431
6.697979 10 3.093338
6.904624 10 3.1019123
7.0897675 10 3.1061208
7.2932758 10 3.100414
7.5024939 10 3.105262
7.6972799 10 3.1065204
7.9088454 10 3.0872262
8.0971212 10 3.1077995
8.2947407 10 3.0976722
8.4897966 10 3.1118155
8.7031536 10 3.0936027
8.9050856 10 3.1043632
9.1031942 10 3.1092219
9.2969131 10 3.1020455
9.5130816 10 3.0957863
9.7120981 10 3.1045656
9.8900537 10 3.1044312
0.056503046 0.047343593 3.3057351
0.29287949 0 3.2860751
0.48628864 0 3.2970746
0.68709242 0 3.3075368
0.89412308 0 3.310107
1.0976186 0 3.2961078
1.2986143 0 3.303982
1.4944578 0 3.3083827
1.7048607 0 3.3034694
1.9038776 0 3.3143492
2.1016464 0 3.3034344
2.307133 0 3.3075159
2.5052032 0 3.2984357
2.7125394 0 3.3057036
2.9089315 0 3.2982812
3.1144044 0 3.2993038
3.2982333 0 3.2966225
3.5115526 0 3.3031306
3.6945388 0 3.3007298
3.9056449 0 3.2940531
4.0992126 0 3.2939577
4.2902536 0 3.3073287
4.5000324 0 3.3067288
4.6893773 0 3.3031695
4.8973346 0 3.2902479
5.1017809 0 3.2974334
5.288641 0 3.2976661
5.493185 0 3.3040462
5.6951013 0 3.2955377
5.9039984 0 3.3010163
6.1150432 0 3.2937465
6.2909865 0 3.2967997
6.4935594 0 3.302917
6.7102332 0 3.2969136
6.9104457 0 3.3020961
7.0992446 0 3.3020833
7.3011355 0 3.3062649
7.5037212 0 3.3042459
7.7000489 0 3.3038673
7.8954959 0 3.3035562
8.1009607 0 3.311301
8.3023872 0 3.287863
8.4952908 0 3.305299
8.7033548 0 3.3077738
8.8940659 0 3.3014297
9.1007175 0 3.2982614
9.2970362 0 3.3027887
9.5131073 0 3.3085403
9.6699953 0 3.2959042
9.9134569 0 3.3073046
10 0.10182651 3.2965372
0 0.29773882 3.3064461
10 0.29997194 3.2959981
0 0.50679725 3.3076582
10 0.50466585 3.3166218
0 0.7140727 3.2965047
10 0.70482266 3.3022883
0 0.90217704 3.303654
10 0.9094103 3.2921922
0 1.1067098 3.2973678
10 1.0954251 3.2967415
0 1.3018527 3.2998941
10 1.2940595 3.3001723
0 1.5068616 3.2957857
10 1.5026677 3.2974865
0 1.6938268 3.3051953
10 1.6950101 3.2807665
0 1.8991045 3.294256
10 1.885738 3.2991066
0 2.1062481 3.3007157
10 2.10057 3.2974613
0 2.3012106 3.2951527
10 2.3028731 3.2937307
0 2.5034595 3.2957337
10 2.5079272 3.2956457
0 2.6950479 3.3070102
10 2.703496 3.290581
0 2.9008074 3.2913177
10 2.8988087 3.3012972
0 3.1139314 3.2995858
10 3.0953639 3.3113592
0 3.3037176 3.3046386
10 3.3025253 3.2965312
0 3.5045559 3.3031187
10 3.4908834 3.3019145
0 3.6943438 3.2944281
10 3.699636 3.2842734
0 3.9107621 3.3088481
10 3.9064944 3.2902179
0 4.0982308 3.3064098
10 4.1075068 3.3038583
0 4.3041782 3.3062356
10 4.3020663 3.2902813
0 4.4917288 3.303515
10 4.497169 3.307308
0 4.7025871 3.3107398
10 4.6962748 3.2943995
0 4.89748 3.3160892
10 4.8973951 3.2978556
0 5.1025643 3.2957416
10 5.0977879 3.2981672
0 5.2829289 3.2906287
10 5.2930465 3.3048577
0 5.5112514 3.3115411
10 5.4841042 3.2946641
0 5.7061887 3.3015473
10 5.6954165 3.3059883
0 5.9030037 3.3097036
10 5.8991914 3.3043604
0 6.0976167 3.3019555
10 6.1007686 3.3046017
0 6.3010435 3.2952087
10 6.3113518 3.29178
0 6.4954953 3.2932734
10 6.4900403 3.2918155
0 6.7044621 3.3032336
10 6.7001119 3.3081267
0 6.9036288 3.2955678
10 6.8961453 3.2847846
0 7.1079173 3.2877231
10 7.0984406 3.308861
0 7.2999392 3.2994998
10 7.2986317 3.3052108
0 7.4878306 3.29059
10 7.4920783 3.302604
0 7.7088943 3.2930167
10 7.6954112 3.3002336
0 7.8933334 3.2952352
10 7.8887525 3.3037937
0 8.1058683 3.2983918
10 8.1019459 3.3029947
0 8.2963142 3.3032396
10 8.3096399 3.2997818
0 8.5005207 3.3160901
10 8.496953 3.2949712
0 8.6943951 3.3012972
10 8.7015772 3.2986209
0 8.893527 3.29673
10 8.8911076 3.2885246
0 9.103797 3.3063817
10 9.1032314 3.291276
0 9.2877197 3.2878346
10 9.2984371 3.3007312
0 9.4909182 3.2957385
10 9.4959173 3.3031244
0 9.7038546 3.3007898
10 9.7025032 3.2972045
0 9.899518 3.2992697
10 9.8995552 3.3030796
0.11361321 10 3.3069098
0.30549544 10 3.2986388
0.51282346 10 3.3045065
0.7021203 10 3.2990966
0.90487343 10 3.299747
1.0949188 10 3.301543
1.2990817 10 3.2962685
1.4996492 10 3.3032906
1.7008655 10 3.2965293
1.9041446 10 3.296639
2.1029193 10 3.2889075
2.2934682 10 3.2921631
2.4973984 10 3.299381
2.7114627 10 3.3006704
2.9006906 10 3.3065197
3.107029 10 3.2965734
3.2970133 10 3.2966242
3.4927518 10 3.2911589
3.696445 10 3.302361
3.9049642 10 3.2926407
4.1021962 10 3.3048513
4.2857647 10 3.3069458
4.5014181 10 3.3011208
4.6916466 10 3.3043482
4.9021549 10 3.2926569
5.1052413 10 3.3015954
5.3048072 10 3.2949176
5.5021114 10 3.2845199
5.6935058 10 3.2944121
5.8982387 10 3.3028638
6.0998187 10 3.2940502
6.2978497 10 3.2911601
6.5032291 10 3.3007734
6.7031207 10 3.2967048
6.8964906 10 3.3083482
7.0860043 10 3.2960429
7.3072276 10 3.3012805
7.4856129 10 3.312331
7.7072897 10 3.298537
7.900619 10 3.3008025
8.1032925 10 3.2860646
8.3053865 10 3.3053126
8.5081358 10 3.3103147
8.6952705 10 3.3079739
8.9069042 10 3.2981577
9.0982094 10 3.2985487
9.305687 10 3.2956009
9.4888391 10 3.3060663
9.7028408 10 3.3053339
9.8899221 10 3.2920525
0.048595335 0.046732686 3.4943953
0.30637279 0 3.4993141
0.49339676 0 3.5052683
0.69401008 0 3.5036287
0.90523863 0 3.5056214
1.1047425 0 3.4976187
1.2924781 0 3.5143356
1.513392 0 3.4990106
1.6970751 0 3.4999003
1.9016203 0 3.5012529
2.0927994 0 3.4748497
2.3017156 0 3.495425
2.5029573 0 3.5053272
2.6916883 0 3.5066726
2.8986914 0 3.5080643
3.1173837 0 3.492044
3.2983243 0 3.4901001
3.49716 0 3.4949093
3.7058847 0 3.4978344
3.893862 0 3.5000017
4.0962334 0 3.5015299
4.3037438 0 3.4872503
4.4860253 0 3.5033424
4.7010317 0 3.5096233
4.8957214 0 3.5153692
5.0893173 0 3.5008326
5.3007274 0 3.4965487
5.4956656 0 3.4999123
5.7099705 0 3.5008647
5.8976917 0 3.5034838
6.0959835 0 3.4812319
6.2859435 0 3.5039632
6.4975686 0 3.4967275
6.6945481 0 3.5000393
6.8954344 0 3.4880824
7.1058745 0 3.5023124
7.3009396 0 3.4977977
7.499723 0 3.5052855
7.7064805 0 3.5114169
7.8955069 0 3.504704
8.0916443 0 3.4908681
8.2949944 0 3.4926391
8.4999924 0 3.5024436
8.7078066 0 3.5107718
8.8919411 0 3.496139
9.1036091 0 3.505976
9.3051052 0 3.5007415
9.4963694 0 3.4981511
9.6944599 0 3.5037766
9.9186058 0 3.5027812
10 0.090456478 3.505476
0 0.29590297 3.5007885
10 0.28699893 3.5010877
0 0.50114018 3.4983346
10 0.50045598 3.5060194
0 0.70381147 3.5025499
10 0.71605456 3.5072551
0 0.88621068 3.502934
10 0.89686221 3.5190904
0 1.1153977 3.4945402
10 1.10307 3.5001631
0 1.307313 3.4980237
10 1.3022791 3.5021951
0 1.4970896 3.4967327
10 1.5042557 3.5092573
0 1.7143317 3.5094528
10 1.7029858 3.4950721
0 1.8906944 3.4997418
10 1.9078685 3.5058949
0 2.1174629 3.5014606
10 2.097913 3.5031531
0 2.3027415 3.4943266
10 2.31564 3.4932444
0 2.495698 3.506007
10 2.4992814 3.4939463
0 2.7031677 3.498004
10 2.6939757 3.5012243
0 2.9047816 3.4979773
10 2.900764 3.4964967
0 3.1136401 3.5001729
10 3.0956547 3.5122352
0 3.2964876 3.5012858
10 3.2960174 3.4892378
0 3.5056927 3.4877446
10 3.4886706 3.4943836
0 3.7006645 3.4937623
10 3.7077897 3.5039291
0 3.9032216 3.4773431
10 3.8923297 3.4935563
0 4.0952258 3.5064063
10 4.1042833 3.4996943
0 4.3083973 3.4987767
10 4.3026857 3.5083406
0 4.5008669 3.4944344
10 4.5021234 3.5004027
0 4.6967821 3.5053267
10 4.7020478 3.4965804
0 4.8980575 3.5170593
10 4.9008684 3.4998829
0 5.0919948 3.4983561
10 5.1090207 3.4876196
0 5.3030152 3.5028551
10 5.3094015 3.489599
0 5.4865723 3.5018525
10 5.4891443 3.5009208
0 5.7076607 3.5014834
10 5.7026825 3.516881
0 5.9154816 3.4934311
10 5.9172506 3.4958704
0 6.0954485 3.5089824
10 6.1015449 3.5029471
0 6.2983546 3.4941814
10 6.2935138 3.5093014
0 6.5008421 3.5019667
10 6.502604 3.5107007
0 6.6806984 3.4912236
10 6.6887922 3.4907584
0 6.9147668 3.4984357
10 6.9020567 3.5075328
0 7.0981407 3.4949682
10 7.097764 3.4960358
0 7.2986236 3.5062945
10 7.2927442 3.4918072
0 7.5058951 3.50157
10 7.5096407 3.4957206
0 7.7019906 3.5013399
10 7.721158 3.5026729
0 7.8959436 3.5039253
10 7.9115853 3.4983146
0 8.1066895 3.4868939
10 8.0971632 3.5029612
0 8.3007793 3.4929547
10 8.3003683 3.5025382
0 8.5024338 3.5016978
10 8.4883318 3.4958172
0 8.7100763 3.491215
10 8.7009506 3.4957988
0 8.8973389 3.5010309
10 8.905283 3.4886332
0 9.106801 3.4857249
10 9.1125755 3.4900212
0 9.2981663 3.5090375
10 9.3077621 3.5076065
0 9.4926872 3.5024385
10 9.4944382 3.5111246
0 9.7064257 3.5005288
10 9.6911106 3.5000241
0 9.893487 3.5157912
10 9.896431 3.5004642
0.097379871 10 3.4933877
0.3011561 10 3.5080802
0.50301224 10 3.4990914
0.69743639 10 3.4957204
0.90241194 10 3.4984019
1.0980554 10 3.4886482
1.3019953 10 3.5048187
1.5014942 10 3.4976892
1.699136 10 3.5077431
1.898465 10 3.5053132
2.0919659 10 3.5013664
2.3061066 10 3.5073459
2.4964128 10 3.4949515
2.704906 10 3.5010121
2.903199 10 3.5081935
3.1023707 10 3.4983766
3.3066664 10 3.501925
3.500808 10 3.4930625
3.7060878 10 3.498445
3.8944314 10 3.4932792
4.0928192 10 3.4937384
4.3052835 10 3.4936941
4.5124364 10 3.4978714
4.7083263 10 3.4982469
4.8920522 10 3.4972041
5.0915098 10 3.4939125
5.2930412 10 3.5053687
5.5030432 10 3.4964828
5.7057343 10 3.4953921
5.9007616 10 3.505558
6.0867405 10 3.5101936
6.2960491 10 3.4971988
6.4948134 10 3.509223
6.698338 10 3.5000715
6.9040546 10 3.50577
7.0924802 10 3.4946465
7.2885351 10 3.5007892
7.4911652 10 3.493659
7.6982861 10 3.5064385
7.9044609 10 3.5093615
8.1095037 10 3.5086186
8.2984505 10 3.5029619
8.509841 10 3.5070944
8.7046995 10 3.5165293
8.8985901 10 3.500474
9.1011591 10 3.4895451
9.2972794 10 3.4884081
9.4918795 10 3.5078881
9.6891899 10 3.4942884
9.9016237 10 3.5030258
0.044540726 0.049418107 3.7008221
0.30249876 0 3.690675
0.51075518 0 3.702451
0.69331998 0 3.700788
0.90637439 0 3.6990173
1.0936923 0 3.6884656
1.3043858 0 3.6910079
1.4948546 0 3.7023611
1.7084489 0 3.6891541
1.9088882 0 3.7147958
2.1020777 0 3.7051549
2.3025501 0 3.6986349
2.4844673 0 3.69296
2.701293 0 3.7017529
2.8921924 0 3.7026982
3.0950217 0 3.6910722
3.2898316 0 3.6931577
3.5041895 0 3.7059705
3.6985838 0 3.7056227
3.9045246 0 3.6937618
4.1050262 0 3.700583
4.3029089 0 3.7006447
4.5075479 0 3.7044995
4.7037563 0 3.6755877
4.9034705 0 3.6942351
5.0897269 0 3.6911304
5.3029342 0 3.6955085
5.5014267 0 3.692261
5.7001104 0 3.7057245
5.9017801 0 3.6886728
6.1045628 0 3.6958675
6.2983828 0 3.6963568
6.5074353 0 3.7092769
6.6917548 0 3.6887887
6.8926497 0 3.690608
7.1074252 0 3.6998618
7.2978868 0 3.7031488
7.5078611 0 3.6975274
7.6927257 0 3.6933637
7.8986335 0 3.6996803
8.0920725 0 3.6977687
8.3062763 0 3.6880651
8.4999132 0 3.6872067
8.7100954 0 3.7158732
8.9048042 0 3.6927257
9.1032991 0 3.7106802
9.3055353 0 3.7143703
9.4979954 0 3.7061455
9.7038898 0 3.695605
9.8894777 0 3.7042973
10 0.1050389 3.7067327
0 0.30091774 3.7111595
10 0.29666936 3.700556
0 0.49052396 3.7005727
10 0.49400446 3.6998799
0 0.69478601 3.6962025
10 0.69456398 3.7132478
0 0.904719 3.7052624
10 0.8888095 3.6998591
0 1.0922086 3.6946452
10 1.0981307 3.6875653
0 1.2994466 3.6961477
10 1.2957754 3.6894841
0 1.4912097 3.701035
10 1.4915226 3.7079706
0 1.6949241 3.6984091
10 1.7051502 3.6892266
0 1.909518 3.7070692
10 1.8915155 3.6931334
0 2.1101637 3.6817725
10 2.0966904 3.6977944
0 2.3030143 3.7032406
10 2.292531 3.6731505
0 2.4978776 3.6954257
10 2.5037992 3.6958399
0 2.6871176 3.6959
10 2.7029331 3.7069523
0 2.9004865 3.7046032
10 2.9069946 3.6863763
0 3.1086628 3.7016249
10 3.0955164 3.7076099
0 3.2899537 3.7057457
10 3.2969432 3.7046018
0 3.5023131 3.6987236
10 3.5051377 3.6897278
0 3.6938818 3.6955225
10 3.6983342 3.6868067
0 3.9174757 3.6950762
10 3.9024291 3.7015889
0 4.1056528 3.7168834
10 4.0820351 3.6906686
0 4.3131266 3.6876407
10 4.3103008 3.714606
0 4.5041175 3.7110903
10 4.4746513 3.699383
0 4.699173 3.7041421
10 4.6954398 3.6891341
0 4.9048834 3.7052658
10 4.8965654 3.7012241
0 5.0934615 3.6879394
10 5.088479 3.6869209
0 5.2939196 3.6974862
10 5.297008 3.697114
0 5.496232 3.6944673
10 5.5020356 3.7114785
0 5.7067018 3.6887259
10 5.7012534 3.6984179
0 5.9013963 3.6992331
10 5.8975034 3.7043016
0 6.1028461 3.7000778
10 6.1004896 3.6999872
0 6.3091249 3.6986794
10 6.2903476 3.7013104
0 6.508378 3.7077591
10 6.4940586 3.6969969
0 6.7014675 3.7080266
10 6.6992359 3.6979599
0 6.8991094 3.690228
10 6.895782 3.7089031
0 7.0889587 3.7088814
10 7.0896082 3.6976085
0 7.3086967 3.6913433
10 7.29527 3.7090216
0 7.484405 3.6994905
10 7.5006499 3.6955922
0 7.6968975 3.7005382
10 7.6944962 3.700043
0 7.9051056 3.70069
10 7.890327 3.6923199
0 8.1036777 3.6956205
10 8.101594 3.6984613
0 8.2949286 3.6917911
10 8.2889004 3.7040682
0 8.5037193 3.7041178
10 8.507081 3.6930006
0 8.6960888 3.698529
10 8.6984959 3.7006361
0 8.9084482 3.6967173
10 8.8918104 3.6998596
0 9.1037388 3.711693
10 9.0994225 3.6961503
0 9.3006907 3.6931055
10 9.2973938 3.7033784
0 9.504776 3.7041066
10 9.5043306 3.7092462
0 9.7049179 3.6939487
10 9.6990643 3.7013767
0 9.8872166 3.6885436
10 9.9093504 3.7065802
0.090168528 10 3.6948671
0.29349089 10 3.6910839
0.50300252 10 3.6950831
0.69860476 10 3.7051313
0.90481722 10 3.7017663
1.1121688 10 3.6885524
1.3033353 10 3.7116475
1.4939575 10 3.6974721
1.7060032 10 3.6822898
1.9018354 10 3.7016053
2.1003988 10 3.6903932
2.2982278 10 3.7042689
2.5067399 10 3.705919
2.7027328 10 3.701838
2.8983779 10 3.6965024
3.1003611 10 3.6911294
3.3080101 10 3.6892662
3.4965813 10 3.7021427
3.7003853 10 3.7117107
3.8992805 10 3.695946
4.1004233 10 3.7087982
4.3016849 10 3.694911
4.4967446 10 3.6932447
4.7014194 10 3.6938691
4.895524 10 3.7035699
5.106761 10 3.7047477
5.2942476 10 3.6993611
5.4970841 10 3.6955993
5.6969585 10 3.719486
5.9081469 10 3.7081082
6.1038408 10 3.7015309
6.3007531 10 3.7071524
6.4977889 10 3.7010837
6.7007017 10 3.7149591
6.9034643 10 3.7042174
7.0929008 10 3.6955047
7.3065743 10 3.6934066
7.5039897 10 3.6979482
7.7062821 10 3.699399
7.8904467 10 3.7009544
8.0962992 10 3.7016852
8.2959385 10 3.7031217
8.4906683 10 3.6966157
8.7016487 10 3.6960964
8.8932753 10 3.7044024
9.0977535 10 3.7004302
9.2959757 10 3.7128036
9.4956484 10 3.7069089
9.6991224 10 3.6942706
9.9055004 10 3.6950555
0.039296623 0.05787776 3.9020762
0.30481973 0 3.9092219
0.50998062 0 3.9064634
0.69680601 0 3.8836496
0.900617 0 3.8993959
1.1004928 0 3.8886311
1.3006947 0 3.9031117
1.5082675 0 3.9144528
1.689437 0 3.9104016
1.8962874 0 3.8958504
2.1017978 0 3.9020653
2.2950058 0 3.9087965
2.5091996 0 3.8989046
2.7020826 0 3.9006944
2.9095881 0 3.9060051
3.0957186 0 3.9017246
3.3086288 0 3.9038353
3.5103273 0 3.8891406
3.6942329 0 3.9043126
3.9009757 0 3.9027684
4.0958281 0 3.8977113
4.2947202 0 3.8922691
4.4799156 0 3.9009376
4.7088342 0 3.8941741
4.9040399 0 3.8970549
5.0995498 0 3.9028568
5.2992496 0 3.8904202
5.4840398 0 3.8934197
5.6987805 0 3.9045503
5.8837328 0 3.8914752
6.0895243 0 3.903758
6.3158803 0 3.9149566
6.4995375 0 3.9024019
6.7011375 0 3.8877532
6.8907394 0 3.9093962
7.090116 0 3.9042687
7.3117146 0 3.9107983
7.4976244 0 3.8889446
7.7005272 0 3.8913994
7.9098811 0 3.9009719
8.1011276 0 3.9039171
8.3026485 0 3.8905523
8.4980478 0 3.89271
8.7004642 0 3.9023831
8.8985682 0 3.9020417
9.1067104 0 3.9090335
9.2914724 0 3.898272
9.4970455 0 3.8939488
9.7008066 0 3.9086683
9.8988485 0 3.8942211
10 0.10265432 3.9153275
0 0.31400645 3.9014151
10 0.3014183 3.8983276
0 0.5035485 3.891053
10 0.5023219 3.9067278
0 0.70395499 3.8821602
10 0.69430339 3.8944981
0 0.89362049 3.900553
10 0.89376229 3.9070182
0 1.0958672 3.8902385
10 1.0931929 3.8919599
0 1.2986864 3.9072828
10 1.2968262 3.8919699
0 1.4979979 3.8969221
10 1.4832349 3.8952594
0 1.7185382 3.9055893
10 1.7023096 3.9050572
0 1.8978795 3.8978276
10 1.908046 3.8944316
0 2.0990736 3.8984618
10 2.100908 3.8961174
0 2.3073075 3.9145694
10 2.2946754 3.9035726
0 2.5008066 3.8969853
10 2.5034828 3.8988941
0 2.7026403 3.8940763
10 2.6972141 3.8935056
0 2.8976452 3.9010744
10 2.9024343 3.8938549
0 3.1103873 3.8976464
10 3.0887771 3.9110897
0 3.3113995 3.8989003
10 3.2853799 3.9021797
0 3.4977117 3.8961973
10 3.5109427 3.9024611
0 3.7093871 3.9032166
10 3.704653 3.8993785
0 3.8893776 3.8994656
10 3.8916569 3.9036775
0 4.0894799 3.8998399
10 4.095192 3.9087024
0 4.2953987 3.9046476
10 4.3023562 3.9043479
0 4.4983149 3.9034362
10 4.511867 3.9025688
0 4.7013011 3.8971786
10 4.7019405 3.9033289
0 4.9074678 3.9095724
10 4.9049039 3.8973854
0 5.1025333 3.8998437
10 5.0748177 3.9028184
0 5.3080182 3.8926868
10 5.3013811 3.8954809
0 5.4992824 3.904783
10 5.5087399 3.8999484
0 5.6956177 3.8955352
10 5.7031569 3.9098268
0 5.890583 3.8967028
10 5.8982072 3.8990393
0 6.0957475 3.8958652
10 6.1014452 3.8958127
0 6.31356 3.8939767
10 6.3070664 3.91067
0 6.4930768 3.8902538
10 6.5006952 3.8956599
0 6.7000542 3.8937361
10 6.6943974 3.8838887
0 6.8982496 3.8963318
10 6.8910017 3.9054995
0 7.0948229 3.8977633
